ply
format ascii 1.0
element vertex 1199
property float x
property float y
property float z
property uchar diffuse_red
property uchar diffuse_green
property uchar diffuse_blue
end_header
-1.482097 2.456676 13.490137 179 193 193
-1.359472 2.485227 13.554546 67 92 114
-1.433325 2.511711 13.472947 63 76 111
-1.373410 3.085431 12.952620 93 80 98
-1.455536 2.982177 15.129007 69 98 132
-1.271574 -0.735257 15.959581 183 174 157
-1.194509 -0.554841 15.305067 178 164 151
-1.273570 -0.398285 15.418157 85 87 84
-1.220858 -0.163453 15.253499 148 161 152
-1.226420 -0.278583 15.361736 162 168 158
-1.118101 0.110285 15.116045 149 168 162
-1.138044 0.294368 15.399717 98 93 89
-1.248746 0.526131 16.027360 132 158 173
-1.252520 0.677259 16.217243 111 152 182
-1.265540 0.787263 15.100202 127 140 159
-1.206905 0.782501 15.535334 115 132 142
-1.163382 0.806572 15.807219 109 127 131
-1.237751 1.246574 18.023345 103 88 93
-1.238731 1.721442 17.987717 79 53 62
-1.135053 2.021935 15.854819 46 78 65
-1.202557 1.907686 16.077844 70 53 43
-1.182724 2.692291 13.470166 211 223 221
-1.198735 2.845917 13.655555 166 180 167
-1.269078 2.957578 13.596558 49 57 59
-1.213338 3.199186 12.989586 63 55 78
-1.147795 3.434383 13.020979 20 24 61
-1.001048 -1.963793 17.486606 85 67 65
-1.010216 -1.528496 17.748628 75 69 69
-0.938034 -0.882320 15.283961 196 197 192
-1.082026 -0.409205 15.123899 147 131 116
-0.910489 -0.119080 14.914478 54 56 55
-1.045446 0.064220 14.997771 149 157 142
-0.904514 0.129765 14.841143 132 145 135
-1.030026 0.363742 15.164413 154 169 166
-0.941025 0.605482 15.257366 57 58 53
-0.907638 0.865788 15.460997 122 132 124
-0.984315 0.861461 15.758494 94 101 94
-1.091007 0.900991 16.186772 113 128 135
-0.951500 2.061916 15.840668 128 130 116
-1.022964 2.006549 16.029472 153 155 150
-0.976056 2.291662 15.500924 166 165 144
-0.966436 2.168650 15.740311 29 63 46
-0.980755 2.355524 15.348047 169 168 137
-0.951565 2.659354 15.607000 129 128 108
-0.993456 2.702708 13.783333 208 222 207
-1.033279 3.077686 13.242427 87 71 82
-1.085451 2.977818 13.756688 86 97 83
-0.924646 3.103926 13.375825 119 100 104
-1.075748 3.504042 13.054556 44 61 115
-1.043023 3.546202 13.217381 45 60 117
-0.747706 -1.953338 17.470610 91 77 76
-0.770620 -1.618628 17.436757 125 107 105
-0.776984 -1.215558 15.898824 212 216 199
-0.728267 -0.938524 15.052845 207 209 195
-0.832507 -0.964950 15.227596 207 179 165
-0.878359 -0.759255 15.035042 91 86 83
-0.892287 -0.815212 15.122359 190 174 158
-0.775818 -0.419909 14.849785 157 160 149
-0.751185 -0.000534 14.777946 162 179 163
-0.790665 0.296973 14.893549 145 163 165
-0.879567 0.293484 14.916657 147 163 152
-0.734334 0.378742 14.850621 120 147 138
-0.828033 0.479153 14.961006 132 142 143
-0.832329 1.767719 17.547171 64 50 47
-0.862125 2.028580 16.094778 40 29 25
-0.804103 2.427413 15.245915 124 169 138
-0.728515 2.730169 15.333736 116 121 98
-0.882069 2.994397 13.773801 149 157 160
-0.862990 3.104725 13.425943 131 122 125
-0.835152 3.331807 13.410841 90 81 112
-0.655386 -1.100140 15.295713 222 199 191
-0.532606 -1.143784 15.370984 208 220 208
-0.645967 -1.262806 15.754373 219 228 207
-0.509713 -0.899746 14.946389 224 238 223
-0.609047 -0.369320 14.686646 157 140 120
-0.695591 -0.330329 14.773100 153 148 119
-0.643998 -0.177852 14.713410 76 89 82
-0.527868 0.109735 14.645113 108 119 111
-0.560947 0.155557 14.707345 154 176 173
-0.639617 0.672731 15.318487 91 85 71
-0.541854 2.159102 16.309920 12 13 15
-0.635170 2.495966 15.052134 114 159 126
-0.502818 2.479678 15.123678 72 109 91
-0.501487 2.736706 15.029931 22 32 23
-0.696618 2.979768 13.760874 49 58 67
-0.601814 2.900451 14.054152 211 222 208
-0.694638 3.432382 13.529083 70 92 115
-0.319878 -1.580328 16.470108 100 105 108
-0.392199 -1.522258 16.508928 103 113 115
-0.300539 -1.479494 16.274075 26 30 33
-0.391547 -1.134904 21.706809 213 192 175
-0.428493 -1.004020 15.126774 218 235 217
-0.313266 -0.836140 14.740000 122 133 119
-0.466622 -0.510816 14.594010 198 207 190
-0.486452 -0.303972 14.611506 184 198 183
-0.304093 -0.210645 14.550846 56 66 68
-0.360880 0.140405 14.650211 156 180 166
-0.396404 0.454438 14.694832 136 155 161
-0.372842 0.782294 14.895905 68 68 70
-0.302169 1.903164 16.555263 39 40 35
-0.442754 2.530369 15.099075 86 120 106
-0.464175 2.897061 14.356252 204 215 198
-0.438552 3.499767 13.738030 27 36 77
-0.486573 3.632177 13.797859 85 172 252
-0.263266 -1.832772 15.967850 114 100 100
-0.196350 -1.679632 16.281728 101 103 102
-0.233906 -1.381695 15.605345 200 188 166
-0.200376 -1.467090 16.077841 29 39 30
-0.268535 -1.273003 15.284280 226 238 218
-0.288236 -1.082762 14.959087 147 149 144
-0.136118 -0.371279 14.526771 169 179 152
-0.210227 -0.002088 14.537505 162 180 168
-0.141469 0.458139 10.036924 120 137 155
-0.197984 0.488557 14.676728 37 62 69
-0.285680 0.634784 14.811978 122 153 156
-0.229374 0.766454 14.837839 39 48 57
-0.242752 1.800036 16.452925 151 140 118
-0.279856 2.014916 16.347431 41 49 38
-0.274977 2.230708 15.492130 23 34 30
-0.177544 2.175457 16.674560 108 111 100
-0.277212 2.398048 15.209478 185 200 181
-0.134539 2.599737 15.303635 76 76 66
-0.124919 2.794108 14.870322 192 198 184
-0.280474 3.076824 14.029265 131 142 134
-0.098623 -1.953141 15.954334 194 186 167
-0.061611 -1.603467 15.992121 18 29 15
-0.005727 -1.627305 16.187910 25 25 23
0.076092 -1.336675 15.342722 199 178 157
-0.045546 -1.450811 15.758694 29 31 30
-0.069444 -1.172331 15.091667 216 239 213
0.001498 -0.881341 14.711099 132 138 126
0.031451 -0.821506 15.073318 193 203 179
0.036206 -0.598702 14.592526 62 60 61
0.000127 -0.302792 14.502057 181 194 187
0.056886 -0.258668 14.512681 66 72 70
-0.038876 -0.077264 14.480374 126 130 107
-0.009636 -0.006853 14.503625 121 134 124
0.084202 0.119542 14.523882 58 68 60
-0.061452 0.300814 14.601000 154 170 170
0.023584 0.591513 14.662556 121 150 164
0.087580 0.664156 14.781055 125 148 162
-0.045549 0.869617 14.905867 83 98 103
-0.062999 0.913813 15.032659 20 31 37
0.053344 1.628216 15.780133 64 65 47
-0.091566 1.626771 15.987903 55 65 57
0.043151 1.894598 16.237294 16 20 21
-0.003881 2.476912 15.847444 123 120 101
0.012347 2.697920 15.154020 28 29 31
-0.059713 2.754161 15.201981 163 176 156
0.185808 -1.835007 16.404197 91 70 65
0.121022 -1.000518 14.814704 222 240 224
0.195520 -0.752070 14.686424 206 226 215
0.197136 -0.419620 14.454758 178 199 180
0.137244 0.054879 14.493365 140 165 159
0.196496 0.147147 14.518877 151 175 175
0.115254 0.458889 14.622333 47 55 58
0.235710 0.568326 14.677355 94 117 123
0.145366 0.737391 14.840982 58 57 62
0.113719 0.889482 14.953410 69 89 90
0.236701 1.659257 15.653953 103 101 78
0.289025 2.086060 17.187279 26 26 28
0.199697 2.671360 15.748651 75 77 74
0.269942 3.268634 14.584119 81 77 110
0.437349 -1.809888 16.029616 106 86 85
0.450525 -1.829682 16.129254 94 85 80
0.300888 -1.162959 15.040551 220 229 210
0.470032 -1.079896 14.969704 209 218 189
0.486791 -0.861298 14.835055 211 225 210
0.481256 -0.513875 14.540818 172 178 152
0.402890 -0.281352 14.559838 64 67 60
0.305961 0.002939 14.451625 100 89 83
0.316866 0.063704 14.527853 147 126 99
0.419775 0.119635 14.549236 95 88 72
0.442001 0.436522 14.680914 33 46 63
0.430384 0.688333 14.843946 28 37 42
0.427878 0.713735 14.878384 28 39 45
0.324328 2.619855 16.229931 18 20 19
0.322901 2.765513 15.483266 31 25 27
0.335241 3.134652 14.614752 56 50 62
0.340783 3.440622 14.682618 23 24 45
0.396043 3.465440 14.711453 50 82 105
0.681590 -1.806073 15.816239 101 93 91
0.662899 -1.775569 16.002604 107 87 86
0.658804 -1.305838 15.813553 56 45 53
0.641128 -1.199915 15.546701 191 196 174
0.615000 -0.703945 14.797474 186 174 148
0.514879 0.078295 14.565376 41 42 47
0.588364 0.297551 14.692455 139 163 167
0.625244 0.663790 14.968601 93 129 155
0.524969 0.718108 14.879410 21 34 43
0.532663 3.095745 14.878376 111 110 79
0.575421 3.125513 14.871084 92 94 83
0.659312 3.159525 14.910462 108 113 106
0.503413 3.579831 14.942636 12 38 75
0.760491 -1.246593 15.730984 61 52 55
0.791575 -1.063825 15.390418 174 178 155
0.788735 -0.570865 14.819584 172 148 120
0.817790 -0.323494 14.754625 150 137 121
0.702994 0.037118 14.667536 142 143 145
0.761913 0.082289 14.709009 38 37 45
0.704369 0.387882 14.801177 120 145 167
0.711506 0.554948 14.866774 34 57 73
0.783572 0.851933 15.167714 75 102 113
0.881570 2.873877 15.932031 73 73 49
0.871885 2.931642 15.930705 147 138 99
0.886083 3.107933 15.283640 128 96 107
0.772317 3.518879 15.166585 20 35 76
1.082924 -1.814066 15.446822 200 188 174
0.999142 -1.107792 15.636379 98 84 84
0.921555 -1.036998 15.448734 69 55 46
0.948004 -0.813185 15.216536 161 141 116
1.049682 -0.638216 15.131291 156 125 96
0.964595 -0.032226 14.728052 128 112 97
0.934992 0.412343 15.017301 105 128 142
1.068109 0.547053 15.254427 95 112 106
1.031814 0.688296 15.352016 84 105 106
0.981309 2.656415 15.690316 46 48 45
0.912518 2.848848 15.945188 96 86 61
0.920799 2.956457 15.777213 39 43 46
1.019059 3.226950 15.445377 59 57 70
0.909260 3.396828 15.180285 39 49 98
1.003393 3.330703 15.400638 29 34 54
1.102033 -1.757660 15.402977 85 67 63
1.244634 -1.628605 15.291280 46 45 43
1.195204 -1.550663 15.352837 117 98 92
1.285216 -1.196217 15.416402 107 87 89
1.114738 -0.914503 15.506807 60 53 47
1.125537 -0.784700 15.462952 58 46 48
1.177957 -0.599855 15.293644 60 36 36
1.165944 -0.692637 15.397492 50 34 37
1.225029 -0.490898 15.313233 46 42 39
1.168206 -0.194422 15.164153 123 103 79
1.187657 0.081592 15.162092 102 89 81
1.100048 0.295580 15.115699 118 105 99
1.137236 0.657481 15.388187 26 25 33
1.270346 1.363636 15.467905 58 53 59
1.278894 2.053288 15.525608 144 161 169
1.252352 2.296803 15.595085 85 67 67
1.226818 2.252897 15.773852 64 52 54
1.259156 2.380496 15.603780 138 131 103
1.177460 3.052440 15.724046 33 34 52
1.114628 3.420820 15.475074 98 105 111
1.213183 3.310365 15.659323 82 91 90
1.431472 -1.747489 14.976486 91 90 72
1.314285 -1.766988 15.136512 76 81 58
1.366574 -1.591749 15.086665 33 31 34
1.308973 -1.598051 15.420569 102 84 80
1.380696 -1.404563 15.084209 86 67 61
1.459765 -0.373252 15.184400 91 71 72
1.302486 1.090095 15.429162 55 49 51
1.471607 1.273055 15.627630 136 148 164
1.319798 2.436681 15.621376 73 97 109
1.387149 2.348390 15.722330 139 160 163
1.374252 2.923321 15.800235 126 150 160
1.449366 3.537471 15.987638 30 48 96
1.600110 -1.726957 14.977059 93 102 83
1.638279 -1.585414 14.919445 137 153 150
1.530701 -1.457449 14.962483 147 147 111
1.506559 -1.286875 15.026366 164 155 116
1.647841 2.479120 16.000293 76 105 149
1.524538 2.975634 15.764419 152 215 255
1.501475 3.054580 16.051177 26 31 37
1.727578 -1.792649 15.072713 201 202 186
1.801103 -1.622070 14.864021 106 110 95
1.822579 -1.370429 15.345788 82 92 93
1.884287 -1.165954 15.463669 82 67 70
1.717364 -1.020432 15.310634 133 153 151
1.796707 -1.031002 15.533577 137 151 152
1.975343 -1.703914 15.328132 103 104 88
1.951126 -1.166166 15.401624 206 200 178
2.621677 -2.505410 22.787839 111 103 101
2.582283 0.622552 14.289239 225 214 194
-15.248772 -3.953195 67.780854 108 171 118
-14.377249 -4.684214 68.166748 191 215 227
-13.501703 -0.097415 60.363902 246 251 255
-13.142530 -3.653721 66.850334 99 131 128
-12.641803 -0.734124 61.362087 69 76 95
-12.229035 -5.029604 68.208229 212 234 255
-11.841297 -6.454380 69.535449 57 71 80
-11.461242 -3.389756 66.882640 126 149 165
-10.286199 -4.406241 65.934725 179 205 228
-9.543921 -11.063778 59.737719 58 72 81
-9.667575 -3.627137 65.536579 208 230 244
-9.102935 -16.481851 49.436039 212 229 247
-9.179613 -11.294812 56.377402 145 153 172
-9.232715 -6.358174 69.526600 80 121 113
-8.458537 -5.011841 65.299802 217 238 255
-8.319850 4.499547 20.608859 150 218 253
-7.355650 -2.855188 55.538181 237 240 249
-6.954508 -3.764757 58.825357 147 166 172
-6.588178 -12.227539 50.591337 232 246 255
-6.372845 -5.579822 62.424161 86 120 104
-6.239057 -10.634134 54.515804 16 29 37
-5.008948 -10.679251 54.617845 160 148 134
-4.903870 -0.844195 3.662502 216 232 247
-4.586791 0.003007 3.199019 121 135 162
-4.514327 2.767472 15.353108 73 95 116
-4.683707 3.029179 15.602509 151 222 254
-4.501730 3.234143 15.560145 79 83 84
-4.647200 3.317720 15.660090 48 79 123
-4.483465 -0.108216 3.025748 167 183 216
-4.402621 -0.256522 3.197241 189 190 194
-4.445342 2.704869 15.226737 185 189 190
-4.488931 2.910965 15.606058 58 78 113
-4.455957 3.187392 15.481676 108 132 158
-4.428914 3.487374 16.282174 115 124 119
-4.220194 -0.074771 2.758863 246 251 255
-4.117717 2.633075 16.083112 152 220 255
-4.242504 2.801732 15.078413 140 157 185
-4.196306 2.815739 15.100314 34 41 67
-4.191012 3.038957 15.120457 128 151 167
-4.139286 3.170560 15.073725 112 125 131
-4.163946 3.334673 15.168373 43 48 80
-3.774511 0.217592 17.378399 225 218 208
-3.761206 2.872740 14.602491 53 70 116
-3.747460 3.344405 14.661811 97 93 118
-3.517933 2.640214 15.335460 176 178 165
-3.614134 2.760381 15.071718 166 178 190
-3.638325 2.766493 15.417819 63 64 66
-3.526443 2.901804 14.310974 44 51 105
-3.657852 3.043108 14.571868 116 134 134
-3.375165 2.497279 15.367877 187 193 179
-3.341582 2.410026 15.860740 230 245 242
-3.349552 2.583521 15.278895 183 185 171
-3.432722 2.808741 14.691807 165 163 177
-3.453985 2.781539 14.786499 58 68 67
-3.469069 2.908813 14.226129 51 55 103
-3.407285 3.187466 14.196608 123 160 179
-3.345376 3.467695 14.191140 27 39 87
-3.309283 3.401521 14.979583 143 171 193
-3.244194 2.473906 15.389052 65 77 75
-3.143471 2.671918 15.285014 57 52 49
-3.295778 2.875579 14.393086 142 136 164
-2.930969 2.487739 15.182398 133 133 121
-3.055425 2.858730 14.339633 154 156 179
-2.943817 2.982300 13.625314 40 44 89
-2.918811 3.242918 13.684640 23 34 52
-2.984319 3.122831 13.780589 121 151 159
-2.749843 2.084043 16.775263 160 225 255
-2.724289 2.474512 15.338591 231 243 239
-2.764283 2.895562 13.544581 171 181 190
-2.880602 2.778818 13.891349 99 111 109
-2.705873 3.055106 13.386896 25 39 52
-2.892969 2.969171 13.568126 54 48 92
-2.836938 3.226220 13.595248 80 95 114
-2.835519 3.387257 13.618342 27 34 40
-2.605790 0.233575 9.127953 55 85 119
-2.617668 1.830389 16.779112 156 131 90
-2.632470 2.006423 16.756006 141 117 79
-2.646642 2.221285 16.754938 127 101 68
-2.656482 2.360003 16.763009 94 81 72
-2.528559 2.953864 13.428258 137 133 148
-2.562460 2.919401 13.592771 164 172 191
-2.532364 3.152193 13.366861 81 101 125
-2.550913 3.309729 13.422819 106 131 128
-2.560118 3.337877 13.555586 107 125 147
-2.309984 2.085506 16.433335 57 62 65
-2.314276 2.621493 15.004600 27 33 29
-2.442030 2.502055 16.036291 233 244 246
-2.481640 2.885694 13.688610 49 48 44
-2.307325 2.833188 14.241640 46 40 42
-2.465215 2.846870 14.413421 165 155 164
-2.446560 2.811312 15.174790 91 95 107
-2.468717 3.021390 13.167938 70 63 105
-2.490767 2.913520 13.614021 158 164 180
-2.348400 3.009131 13.713714 143 125 137
-2.439166 3.169587 13.263620 97 121 145
-2.316337 3.473622 13.099423 47 36 53
-2.434235 3.394138 13.270088 124 154 182
-2.155553 2.673846 13.617501 91 122 166
-2.274756 2.889033 14.173708 149 152 167
-2.287363 2.715469 14.328543 211 227 226
-2.233934 2.906238 13.613574 57 55 56
-2.053106 1.602864 16.833998 166 206 255
-1.981031 1.528348 17.959111 164 223 255
-1.939817 1.760229 16.470268 61 72 56
-2.046328 1.753611 16.831650 174 168 168
-1.956676 2.668806 13.435014 78 114 148
-2.032354 3.053180 12.707249 167 146 153
-2.056874 2.969564 13.330953 135 122 139
-1.905041 3.260341 12.662858 121 145 169
-1.979356 3.244987 12.726303 110 138 149
-1.933298 3.479546 12.688780 101 118 148
-1.741525 1.672007 16.512887 54 83 78
-1.751570 1.736125 16.388894 113 139 140
-1.798825 2.025438 13.629054 64 88 122
-1.799542 2.116962 13.537709 42 55 90
-1.891682 2.264154 15.407482 252 255 255
-1.770939 2.409843 13.486014 60 73 89
-1.888974 2.328475 13.602861 46 72 123
-1.721145 2.547608 13.474110 174 194 193
-1.813427 2.567623 13.527927 177 193 193
-1.777797 3.098782 12.534191 145 126 158
-1.791100 3.016735 13.404857 113 112 118
-1.700687 2.971842 13.505466 132 137 115
-1.747121 3.172399 12.476664 178 156 177
-1.870684 3.101021 12.563331 153 140 157
-1.899837 3.446812 12.669702 63 80 98
-1.788300 3.568951 12.626532 61 59 98
-1.683122 -0.357813 17.028450 96 95 93
-1.661988 1.636941 16.413390 172 146 121
-1.501880 1.871048 16.229476 156 179 193
-1.621332 1.723817 16.430617 47 86 83
-1.644132 2.042425 14.861233 26 28 27
-1.698443 2.234342 13.518331 97 132 162
-1.620519 2.360006 13.482665 165 184 182
-1.577924 2.329758 13.500157 52 69 113
-1.663718 2.530298 13.488415 40 41 61
-1.676515 2.519554 13.511882 38 55 65
-1.656345 2.521970 13.764726 160 181 184
-1.667076 3.075832 12.742715 148 130 142
-1.535102 2.918681 13.547982 7 8 10
-1.668739 3.612741 12.544210 38 59 104
-1.352154 -2.087354 18.175018 89 77 81
-1.356257 -1.696813 18.209197 93 81 85
-1.407186 -1.335793 18.215893 80 92 92
-1.412019 -1.181086 18.269882 88 86 91
-1.423469 -0.756988 15.958606 75 64 70
-1.410469 -0.890025 18.327355 85 86 91
-1.429998 -0.647348 18.355736 81 84 89
-1.327229 -0.434694 12.679007 48 54 54
-1.352585 -0.317142 15.582519 100 93 83
-1.419559 -0.409359 16.236688 168 149 142
-1.406335 -0.256058 16.164836 139 124 121
-1.446898 -0.017684 16.297564 133 134 139
-1.427613 0.299034 16.122584 144 162 182
-1.381015 0.448864 16.490772 88 73 92
-1.419657 1.832911 16.125640 44 79 73
-1.363824 1.952694 15.804642 135 168 177
-1.388708 2.003325 16.088249 111 152 148
-1.483724 2.455192 13.480064 168 192 192
-1.434579 2.509532 13.465784 50 83 126
-1.358193 2.504829 13.563537 66 96 124
-1.330191 3.609654 12.982946 30 50 101
-1.351734 8.017761 29.559713 27 39 79
-1.190080 -0.563352 15.330377 181 167 154
-1.251622 -0.638538 15.524274 190 172 152
-1.218050 -0.166650 15.269790 148 157 154
-1.213870 -0.284626 15.438226 160 167 159
-1.221149 -0.057418 15.253077 56 57 62
-1.106352 0.105497 15.184352 151 163 161
-1.205619 0.608152 15.612761 124 149 171
-1.239259 0.514680 16.085263 126 147 168
-1.264503 0.772677 16.372322 67 58 75
-1.191285 0.980869 16.173293 58 56 61
-1.284294 1.123068 17.655346 100 84 87
-1.138495 2.022428 15.834202 46 81 61
-1.213355 1.900468 16.008826 64 55 46
-1.257975 1.905712 39.738299 163 188 229
-1.214228 2.828529 13.571190 172 189 183
-1.286760 3.008392 13.605245 111 110 128
-1.110628 2.971551 13.741239 92 97 93
-1.235777 3.249769 12.923530 142 136 162
-1.150953 3.432680 13.005937 19 26 70
-0.978507 -1.985416 17.631459 84 65 67
-1.009266 -1.489020 17.763966 69 67 70
-0.945583 -1.072434 15.999801 202 186 171
-1.018381 -1.022091 16.163481 197 175 162
-0.952055 -0.884663 15.205354 203 199 198
-1.068562 -0.413552 15.200818 149 133 120
-0.911226 -0.123386 14.909538 48 54 54
-1.035013 0.062745 15.055708 142 162 160
-1.026947 0.360903 15.181080 153 168 163
-0.985630 0.531441 15.198750 67 74 67
-0.905913 0.864020 15.469746 116 131 126
-1.023798 2.093560 15.724347 48 79 61
-1.020681 2.008795 16.042913 136 148 148
-0.974299 2.168527 15.697469 40 71 53
-0.987558 2.306491 15.412843 139 138 118
-1.027694 3.088863 13.270971 86 72 87
-0.936525 3.090746 13.320239 130 104 115
-1.088175 2.976279 13.742510 86 98 88
-0.757039 -1.952829 17.414591 88 80 78
-0.765841 -1.624430 17.464542 122 105 115
-0.830199 -0.968891 15.239144 208 184 174
-0.833155 -1.076569 15.493413 213 192 171
-0.874920 -0.762349 15.052876 85 88 81
-0.775892 -0.425285 14.848234 145 156 152
-0.750253 -0.003473 14.782009 167 176 175
-0.793805 0.295295 14.877161 141 160 158
-0.892357 0.140708 14.907493 111 120 115
-0.743365 0.372851 14.804554 125 150 147
-0.820652 0.478441 14.998708 119 145 144
-0.850220 0.956270 15.488453 92 103 95
-0.813197 1.787974 17.665975 57 48 49
-0.861646 2.026956 16.097014 20 20 20
-0.806050 2.429754 15.236700 125 167 147
-0.878650 2.952427 13.810936 37 37 39
-0.875805 2.917797 13.903668 193 208 203
-0.854352 3.156356 13.398041 116 98 114
-0.832243 3.342123 13.426252 81 82 112
-0.884297 3.680585 13.499200 77 165 254
-0.592567 -1.129644 15.080207 212 225 218
-0.657106 -1.102405 15.286578 220 201 195
-0.508517 -1.284852 15.476577 208 225 207
-0.513760 -1.018411 15.050568 227 243 232
-0.610854 -0.801723 14.899063 94 106 104
-0.646160 -0.528635 14.780694 66 76 75
-0.692091 -0.331413 14.790066 151 139 127
-0.684548 -0.255725 14.690014 115 107 88
-0.643098 -0.181025 14.717044 76 86 87
-0.556709 -0.082639 13.082073 139 168 176
-0.555430 -0.067172 14.641985 166 183 175
-0.561002 0.152098 14.706620 150 174 176
-0.588674 2.426295 15.185753 69 106 99
-0.628940 2.504530 15.083357 104 159 128
-0.532894 2.709167 14.883280 20 26 24
-0.668453 3.171977 13.510636 105 109 110
-0.497957 -1.564996 13.525509 101 71 71
-0.378514 -1.529228 16.576837 103 117 117
-0.356452 -1.591733 17.000599 64 64 66
-0.442763 -1.370343 15.876865 211 193 173
-0.482515 -1.197455 15.258743 160 170 161
-0.462786 -1.001025 14.967800 223 241 227
-0.304436 -0.840691 14.777811 121 129 118
-0.315538 -0.569243 14.627872 86 87 89
-0.490244 -0.688232 14.759211 202 215 205
-0.485432 -0.306266 14.615705 179 196 180
-0.302821 -0.213287 14.555836 52 62 64
-0.424511 0.244308 14.667141 145 172 167
-0.393102 0.452921 14.708981 146 161 168
-0.356510 0.784555 14.967924 65 64 72
-0.316177 1.897116 16.487877 28 38 39
-0.330852 2.662552 14.890775 115 152 161
-0.355108 2.541346 15.047821 194 195 163
-0.451617 2.801012 14.660604 178 191 173
-0.418793 2.825502 14.758714 181 199 187
-0.459001 3.062597 13.934053 22 24 36
-0.233783 -1.848711 16.104164 109 92 98
-0.163471 -1.880541 17.002187 102 82 84
-0.231102 -1.530053 16.095133 78 83 87
-0.211059 -1.671315 16.213916 96 100 101
-0.128467 -1.625074 17.406035 95 98 107
-0.133517 -1.467123 15.868085 35 35 37
-0.182506 -1.472819 16.159809 35 40 36
-0.268914 -1.274224 15.282395 224 237 220
-0.288644 -1.085723 14.956843 145 152 145
-0.128259 -0.373335 14.558344 159 179 151
-0.205639 -0.002737 14.556352 158 177 171
-0.297310 0.249816 14.628338 147 175 178
-0.237187 0.459984 14.693537 143 174 179
-0.191027 0.488989 14.705485 43 57 68
-0.282518 0.635074 14.825404 124 148 158
-0.216442 0.769387 14.892744 44 44 56
-0.100325 1.624756 15.949447 58 58 56
-0.142937 1.752157 16.371842 22 22 22
-0.230554 1.807420 16.510650 140 143 124
-0.285650 2.014433 16.320327 29 48 29
-0.193721 2.289846 15.857654 29 33 32
-0.136509 2.199906 16.867446 110 112 109
-0.247481 2.426505 15.341754 182 194 182
-0.175192 2.651335 15.174290 128 132 133
-0.235768 2.544878 15.339063 46 55 54
-0.116140 2.802716 14.907102 189 204 185
-0.279500 3.081264 14.033963 116 128 124
-0.210152 3.158898 15.484818 200 211 205
-0.124541 3.458805 14.173494 21 28 74
-0.020854 -1.541045 16.031853 62 72 73
0.082134 -1.334895 15.367631 193 184 155
-0.000754 -1.467114 15.951048 27 33 29
-0.075808 -1.171181 15.065231 216 232 219
-0.016596 -0.813789 14.879945 211 225 208
0.032498 -0.600080 14.577859 55 66 70
0.009174 -0.304084 14.537142 178 198 189
0.096808 -0.297811 14.499315 193 206 189
0.007055 -0.203273 14.502795 168 184 181
-0.026782 -0.077516 14.527960 127 130 113
0.095054 0.120871 14.565416 62 64 63
-0.057758 0.301184 14.615737 142 173 176
-0.084077 0.455072 14.794019 144 172 193
0.080033 0.662836 14.751943 124 152 176
0.084668 0.607068 14.902540 120 148 172
-0.039053 0.841982 14.892088 83 105 102
-0.084383 0.906672 14.944870 31 35 47
0.065219 1.633130 15.829172 64 65 59
0.071990 1.702887 15.665995 6 15 12
-0.076155 2.746305 15.135314 159 170 156
0.130512 -1.001178 14.851477 214 234 222
0.190304 -0.751423 14.666826 205 226 219
0.242947 -0.425569 14.622424 172 188 177
0.146286 0.055127 14.527432 146 162 161
0.201297 0.147018 14.536549 146 169 177
0.124037 0.459844 14.655694 40 52 68
0.253226 0.569978 14.742095 97 122 126
0.140200 0.738894 14.821323 49 61 59
0.117167 0.890422 14.966967 72 89 107
0.261806 1.674360 15.754089 106 99 89
0.100860 1.930128 18.822634 111 123 113
0.275270 3.279186 14.604472 78 75 120
0.458031 -1.833741 16.158251 100 92 89
0.490501 -1.070817 15.044465 208 217 196
0.489788 -0.860422 14.845776 201 221 209
0.398608 -0.280951 14.544776 60 71 63
0.438606 0.077324 14.591182 41 48 54
0.449467 0.124213 14.653357 66 56 64
0.446478 0.439396 14.697060 40 50 62
0.429285 0.689362 14.840528 41 47 69
0.412603 0.712726 14.823944 45 48 57
0.337672 2.139264 17.403426 18 20 19
0.349016 2.776983 15.579640 55 50 56
0.356182 3.157305 14.691432 53 45 68
0.338569 3.444065 14.675862 17 30 46
0.650435 -1.767499 15.957495 103 89 88
0.503114 -1.840139 16.283030 105 85 84
0.582307 -0.962545 18.630705 121 129 118
0.611446 -0.705018 14.785180 193 177 152
0.510213 -0.519664 14.640572 167 177 152
0.524639 0.080366 14.599118 40 51 57
0.584941 0.303901 14.682119 135 165 173
0.696495 0.388804 14.775578 120 150 178
0.529186 0.722441 14.894613 33 35 56
0.516642 3.081656 14.821486 110 109 91
0.776798 -0.568942 14.780471 172 146 129
0.706077 0.040751 14.678218 138 146 149
0.765250 0.085043 14.720289 38 41 46
0.880189 0.574186 15.025167 92 121 151
0.885799 2.830685 15.852176 92 92 64
0.880714 2.878222 15.929910 67 63 51
0.873184 2.937575 15.936109 138 138 114
0.894143 3.125554 15.312425 123 102 111
0.875312 3.352292 15.063817 41 54 107
0.995367 -1.105764 15.623995 102 84 84
0.928191 -1.034741 15.471091 64 55 56
0.936063 -0.809220 15.177929 164 143 126
1.084298 -0.778099 15.331841 55 50 47
1.068700 0.002586 15.057622 126 113 97
1.076540 0.541958 15.280178 86 117 102
0.932306 0.536017 15.436215 98 128 162
1.077932 2.628970 15.692364 97 92 72
1.003634 2.676073 15.765750 49 48 53
0.987480 3.325870 15.351895 26 32 54
1.272239 -1.822670 15.267718 205 207 196
1.192525 -1.645860 15.290834 44 39 43
1.180289 -1.543230 15.306670 118 93 96
1.219752 -1.191148 15.214461 98 88 87
1.155013 -0.689213 15.363232 43 39 38
1.237084 -0.493221 15.350217 50 37 44
1.102425 0.297318 15.123091 110 106 103
1.139678 0.659628 15.396077 28 28 36
1.240733 2.048091 15.563908 70 57 66
1.201103 2.239640 15.691866 60 49 57
1.251193 2.304304 15.592988 74 60 57
1.106352 3.422313 15.449982 112 113 115
1.479762 -1.781614 14.987054 195 198 187
1.307943 -1.758655 15.118081 76 87 73
1.410717 -1.640360 15.051254 137 129 93
1.331782 -1.584521 15.492264 86 70 73
1.378031 -1.402091 15.076511 75 71 62
1.473616 -0.369276 15.225341 85 70 73
1.304067 -0.168617 15.365905 48 43 47
1.314276 1.100932 15.466529 49 46 57
1.471297 1.285269 15.628042 130 146 169
1.302973 1.382591 15.569802 55 45 53
1.384382 2.358269 15.715851 134 161 170
1.499787 2.925228 15.947138 45 59 70
1.434731 3.548279 15.945267 28 43 98
1.524381 -1.286618 15.077842 159 160 116
1.667051 3.078522 16.193640 148 213 253
1.880548 -1.160879 15.453739 73 70 79
1.724413 -1.015029 15.331041 128 153 157
1.988429 -1.701510 15.363746 88 98 87
1.952030 -1.235147 15.426913 104 99 96
3.044521 6.384632 24.362076 56 83 100
-80.201983 -18.284968 126.738239 145 146 190
-77.711352 -16.697022 126.413155 200 210 220
-74.128249 -19.412938 121.744996 201 218 226
-71.117491 -36.866645 125.829457 210 222 236
-64.049162 -12.662347 107.613162 121 118 127
-63.753831 -25.592628 109.139025 146 149 158
-63.043522 -17.253322 110.143782 138 154 188
-59.035035 -12.154074 104.012292 111 122 140
-54.049219 -44.801850 679.974443 209 186 170
-52.860307 -19.130353 106.996695 70 138 223
-48.980521 -30.466969 97.335021 97 114 158
-45.979273 -11.537307 89.449128 77 95 161
-42.839558 -19.372590 111.794534 117 203 216
-39.064582 -31.807467 90.730245 56 81 135
-37.153807 -22.979866 75.144376 97 124 177
-35.114246 -4.879111 60.141675 244 249 253
-34.206987 -11.075548 72.885451 59 157 230
-32.599538 -20.087882 66.600928 104 122 188
-32.571411 -5.035058 62.248020 232 247 254
-31.518050 -7.125892 68.568869 52 70 208
-31.322244 -21.329030 66.058592 168 176 199
-31.106066 -4.136325 48.970243 14 23 20
-30.941676 -10.120904 80.310580 162 202 228
-30.628169 -6.759731 75.523933 59 46 126
-29.731192 -21.972013 66.147884 164 175 205
-29.729123 -6.547512 73.497298 56 45 123
-29.385695 -20.041428 78.188779 109 148 177
-28.158716 -3.734159 46.183933 19 18 23
-28.011045 -21.437622 68.268350 69 137 222
-28.008672 -20.704989 58.788630 216 225 240
-27.293550 -0.836904 51.975494 73 83 95
-27.096352 -22.520150 71.524804 86 95 134
-27.002957 -2.151673 45.740125 201 184 158
-26.883565 -23.183957 71.064740 67 86 119
-26.524857 -24.488898 70.322445 69 84 123
-26.560436 -21.921113 71.961685 136 144 183
-26.655950 -21.157697 72.523650 98 96 109
-26.343214 -25.129573 69.907725 67 87 112
-26.350541 -24.731517 69.913913 63 87 121
-26.485406 -5.048448 70.805801 211 224 241
-25.901158 -20.198715 54.578141 161 174 190
-25.300268 -22.273393 70.011816 49 68 110
-24.773826 -26.222352 69.128922 41 64 98
-24.478547 -22.228509 70.473610 158 171 206
-24.007842 -3.699436 67.093099 41 74 151
-23.793773 -26.475440 68.797923 160 169 202
-23.263931 -9.237146 65.404017 65 102 190
-23.010702 -22.226543 69.455389 58 73 112
-22.926453 -13.013028 71.611796 27 64 144
-22.953346 -4.150393 70.961022 34 72 157
-23.026059 0.190188 45.299995 248 251 255
-22.745820 -21.743622 69.753462 82 94 118
-22.879312 10.835444 38.979342 10 15 11
-22.108162 -14.207224 65.248103 143 153 163
-21.594851 -13.380284 65.649748 247 252 255
-21.541869 -5.116459 70.355362 162 169 188
-21.176846 -0.151859 49.440893 133 148 187
-20.643626 -4.337786 71.387329 113 148 204
-20.059522 0.581801 42.126729 223 229 253
-19.747296 -4.828433 70.882534 178 192 219
-18.955887 -10.579726 62.770141 124 133 140
-18.755005 -19.303816 64.762552 160 169 178
-18.464219 -5.675958 68.620009 97 112 135
-18.193547 -20.778960 59.785388 217 229 255
-18.029964 -10.173342 67.173112 88 104 140
-17.799002 -13.112958 65.866651 110 114 117
-17.199940 -19.569812 62.046516 86 86 96
-16.692747 -11.777273 66.988938 213 226 232
-16.658420 -0.750492 50.191678 131 139 160
-16.662434 -0.821347 54.079804 57 76 90
-13.836747 -0.085504 53.533232 249 253 255
-9.651555 -18.943731 56.339973 218 229 233
-9.247017 2.242763 20.889980 165 226 254
-8.856209 -10.910645 53.606910 157 177 168
-6.958997 -13.178175 56.267763 225 238 254
-6.842095 -11.158575 56.888451 28 36 55
-4.895254 -10.786050 54.770604 174 161 129
-4.701285 3.097226 15.688479 162 227 255
-4.618744 2.811676 15.590822 100 136 150
-4.553775 3.024667 15.658044 115 127 139
-4.407817 2.949449 15.498410 92 104 120
-4.341132 3.266252 15.433012 94 95 90
-4.349493 10.314617 40.776512 5 19 46
-4.128523 2.668417 16.113531 163 227 255
-4.208546 2.856760 15.145144 52 56 85
-4.209262 2.780979 15.330961 53 53 61
-4.163858 2.715497 15.984232 52 51 65
-4.127635 3.261332 15.168750 77 74 101
-4.166980 3.325053 15.140553 42 48 80
-4.013752 3.293097 15.068445 76 71 91
-3.881030 3.310888 14.933359 81 75 89
-3.514196 2.650890 15.308787 175 178 157
-3.355460 2.601092 15.296492 186 180 156
-3.483471 2.747556 15.223259 32 33 28
-3.359890 2.801196 15.306926 157 159 156
-3.316144 4.051384 15.439376 82 74 123
-3.265423 2.851667 14.543516 177 172 179
-3.189073 3.007970 14.073486 70 73 118
-3.045979 -15.197387 55.582320 167 160 131
-2.918770 2.496732 15.184081 154 146 125
-3.009068 2.870897 14.322544 168 163 169
-2.956126 3.288321 13.766477 143 166 158
-3.030264 3.887363 14.726168 72 73 121
-2.768463 3.132420 13.616730 50 60 69
-2.762972 3.322974 13.662451 27 43 56
-2.612334 1.839154 16.755658 174 141 98
-2.576108 2.126942 16.751325 161 129 90
-2.698052 2.196705 23.179150 146 147 131
-2.594146 3.000127 13.499761 166 161 167
-2.570197 2.943894 13.702344 169 173 176
-2.627828 2.944213 14.149836 79 76 87
-2.629450 3.164082 13.510777 111 131 138
-2.548547 3.323049 13.492390 120 142 130
-2.330820 1.900898 16.706866 56 59 52
-2.433769 2.082407 16.934672 69 76 68
-2.311260 2.681646 13.706761 142 136 148
-2.423704 2.914746 13.765205 61 60 65
-2.381660 3.608199 13.661231 148 175 184
-2.208244 1.629875 16.690701 163 229 255
-2.197302 1.876736 16.603507 162 132 104
-2.161503 1.937195 16.714568 51 54 47
-2.137665 2.755718 13.619293 53 72 68
-2.231899 2.925691 13.710008 65 66 61
-2.189308 3.136114 13.000608 62 73 139
-2.136531 3.299701 14.486816 137 126 130
-2.169436 3.487740 13.108123 153 177 181
-1.973255 1.687469 16.563549 145 137 118
-2.030125 1.742760 16.563769 174 175 167
-1.940600 2.450122 13.612442 71 85 120
-1.956027 2.692015 13.539154 99 127 164
-2.085445 2.780622 13.567040 166 154 166
-1.973199 2.886527 13.763849 32 39 45
-1.961976 3.086228 12.720656 161 155 159
-1.934180 3.142280 12.668622 85 85 135
-1.963988 3.374623 12.784468 131 141 153
-1.798280 -12.091987 43.850802 173 155 131
-1.814817 1.617467 16.621497 141 145 144
-1.734870 1.619506 16.738099 165 226 255
-1.745524 2.152271 16.142086 178 153 133
-1.815456 2.382113 13.585811 165 186 181
-1.741236 2.518272 13.567038 181 200 178
-1.855459 3.119794 12.620319 183 166 182
-1.724928 3.653949 12.599877 23 27 72
-1.794226 5.489709 22.345827 69 103 113
-1.620542 1.732048 16.465690 75 105 103
-1.612254 2.140339 14.769973 193 212 227
-1.522860 2.351896 12.831377 47 47 57
-1.623060 2.377486 13.568820 176 198 186
-1.676038 2.579651 13.529268 192 204 194
-1.663591 3.088980 12.760277 172 155 165
-1.525175 3.078614 13.071513 111 105 105
-1.573868 3.050492 13.202070 151 145 155
-1.677158 3.290943 12.511688 66 62 76
-1.578737 3.474423 12.685478 46 48 89
-1.472670 1.889924 15.887735 97 137 137
-1.495209 1.863613 16.175196 191 205 216
-1.459421 1.992747 15.894262 121 154 127
-1.408072 1.940854 16.019081 142 166 166
-1.493093 2.243888 13.655094 157 185 207
-1.407851 2.216374 13.998675 63 78 117
-1.485591 2.464026 13.547483 188 201 191
-1.403219 2.344441 15.671971 40 31 26
-1.364838 2.401304 15.992937 79 75 66
-1.416692 2.638211 15.685667 163 160 155
-1.419827 2.891936 13.859060 41 45 72
-1.417092 2.939375 12.394132 124 108 111
-1.422217 2.988366 13.572718 97 92 88
-1.430636 3.158320 12.914702 175 155 167
-1.232407 -1.177154 17.808736 214 201 193
-1.112248 -0.117030 20.109668 157 174 168
-1.229566 0.552682 15.745126 143 169 182
-1.197753 1.896822 16.038170 64 55 46
-1.218721 2.100559 15.793337 108 140 135
-1.165526 2.318490 15.579877 28 51 33
-1.208958 2.489984 15.832588 110 112 90
-1.111092 2.645719 15.591506 72 75 58
-1.277477 2.567015 15.726234 52 51 46
-1.178101 2.796427 13.867651 200 208 195
-1.190958 2.982641 13.690409 71 69 72
-1.154311 3.268535 13.043854 46 47 78
-1.109260 3.338698 13.077851 33 37 74
-1.257810 3.520138 12.992089 21 25 63
-0.982325 -1.974186 17.696054 102 84 80
-0.938913 0.608893 15.269237 65 63 64
-0.914802 1.855643 17.011269 165 141 113
-0.940118 1.738213 17.694379 85 67 53
-1.000453 1.991961 15.845940 159 158 153
-0.981381 2.268143 15.477377 192 189 158
-0.960503 2.145415 15.666402 39 65 52
-1.040867 2.307728 15.420701 170 173 142
-0.952685 2.644593 15.517185 131 134 103
-1.038410 2.772569 13.746207 217 229 219
-1.027697 2.861573 14.746523 222 228 214
-0.933830 3.101517 13.381975 153 134 138
-0.751337 -1.950552 17.429832 108 93 96
-0.803203 -0.718373 15.095603 214 217 200
-0.834415 -0.646845 15.050951 200 203 174
-0.778785 -0.412866 14.884912 165 169 155
-0.708086 0.481665 14.943481 141 157 147
-0.856463 2.038280 16.027558 38 34 31
-0.712507 2.071441 16.151321 84 71 55
-0.786363 2.149626 15.608859 150 159 142
-0.802417 2.419436 15.231813 137 175 152
-0.841468 2.665668 15.382578 60 64 49
-0.754511 2.896129 14.036323 174 175 170
-0.820595 2.754684 15.139497 169 174 152
-0.886871 3.011768 13.845553 151 157 157
-0.767105 2.912959 13.931422 208 215 207
-0.860666 3.137082 13.428389 119 106 115
-0.841501 3.330012 13.426657 91 82 111
-0.638768 -0.172491 14.770753 124 125 119
-0.516056 0.305051 14.752859 150 166 153
-0.632814 2.171717 15.387524 146 154 130
-0.549512 2.103331 16.122424 15 20 14
-0.654562 2.789741 15.113045 71 76 69
-0.698923 2.980094 13.779072 45 55 54
-0.363802 -1.299080 15.520874 235 240 218
-0.484764 -0.685477 14.835351 210 219 200
-0.418472 -0.436604 14.671781 185 189 164
-0.345984 -0.244277 14.606502 191 210 188
-0.377502 0.133962 13.593007 164 185 170
-0.330608 0.426043 14.707723 153 172 170
-0.380689 0.808279 14.952601 40 38 41
-0.400148 2.004216 16.628889 121 128 136
-0.314173 2.352730 15.185891 185 193 172
-0.322951 2.338765 15.832727 39 42 35
-0.329816 2.676166 15.010839 107 149 137
-0.459842 2.832411 14.073657 203 214 198
-0.485940 2.732299 14.977877 22 35 28
-0.474718 3.044608 13.886378 50 48 70
-0.492791 2.968278 13.991217 206 214 203
-0.301890 2.986960 14.206074 49 44 48
-0.313595 3.320304 13.795856 40 49 78
-0.423464 3.548900 13.884077 17 22 44
-0.331041 3.597398 14.046738 14 33 63
-0.185970 -1.717377 16.076666 31 49 51
-0.133324 -1.010480 14.930804 213 221 206
-0.132018 -0.368299 14.585769 183 186 155
-0.209716 -0.002860 14.590188 175 186 170
-0.195054 0.493485 14.719450 48 59 65
-0.285059 0.629457 14.778150 131 161 159
-0.219906 0.773026 14.887138 54 55 50
-0.218688 1.687077 16.228287 35 36 28
-0.155323 1.742486 16.292673 30 31 26
-0.257065 1.775370 16.306187 157 149 128
-0.270528 2.064594 16.231015 119 125 113
-0.266202 2.326320 14.954939 193 201 180
-0.102842 2.496777 15.533589 19 24 18
-0.256153 2.654180 14.947894 38 58 49
-0.241075 2.635682 15.101253 87 100 82
-0.250655 2.858490 14.399070 193 206 189
-0.261126 2.930018 14.362483 39 35 34
-0.131395 3.446127 14.132601 26 27 57
-0.042449 -2.343791 20.798847 105 75 73
0.047503 -1.707355 16.044128 49 49 47
0.079048 -1.538978 16.073352 59 62 53
-0.071436 -1.166101 15.077540 229 240 224
0.099115 -0.924871 15.496738 232 237 215
-0.049296 -0.807612 14.726822 203 208 185
0.030661 -0.597714 14.629565 67 66 62
0.095964 -0.294479 14.543389 198 211 193
-0.036757 -0.074766 14.551173 133 142 111
0.083312 0.119645 14.556109 64 62 50
-0.063652 0.302428 14.638203 160 176 175
-0.094225 0.467031 14.784358 119 143 153
0.087749 0.663714 14.753453 122 149 160
-0.035440 0.842937 14.968745 93 111 99
0.048684 1.036276 4.019446 51 62 118
0.042092 1.610597 15.745761 72 68 65
-0.057785 1.560628 15.944501 22 24 21
0.099029 1.705365 15.684516 16 20 19
0.018417 1.862888 15.983070 28 32 33
-0.094853 2.550482 15.287917 209 217 219
0.080105 2.669418 15.723996 100 105 98
-0.074886 2.824018 14.854326 37 37 35
-0.098172 3.051721 14.192942 51 57 53
-0.065193 3.221076 14.099284 160 155 152
-0.061614 3.289304 14.104121 40 43 84
-0.099822 3.330627 14.085069 88 102 111
0.038138 3.352810 14.231569 26 39 73
0.101993 -1.173727 15.136720 235 242 226
0.123016 -1.006108 14.957726 231 243 231
0.192182 -0.747667 14.686763 214 227 209
0.220241 -0.421911 14.567839 181 193 171
0.241824 -0.134524 11.280597 67 66 62
0.200340 0.147221 14.529707 158 170 166
0.118380 0.460331 14.663042 55 53 58
0.221644 0.788770 14.863008 90 105 108
0.114290 0.885404 14.922221 69 94 88
0.221965 1.648673 15.602919 110 114 100
0.126870 2.474447 15.884458 107 110 91
0.241694 2.584217 15.977189 22 24 21
0.231696 2.702412 15.906638 82 78 77
0.262061 3.245650 14.517363 93 77 113
0.298813 3.374324 14.360175 46 54 73
0.294275 3.536405 14.623038 18 28 55
0.434427 -1.184052 15.219335 217 224 206
0.326236 -0.898826 14.804110 148 151 140
0.401273 -0.281579 14.555557 66 69 48
0.318606 0.062444 14.521338 143 127 93
0.428833 0.115349 14.578587 47 46 42
0.439640 0.433802 14.670707 44 43 57
0.327846 2.579026 16.192064 21 22 24
0.498382 3.075998 14.818419 82 79 62
0.342864 3.213180 14.556969 38 40 55
0.385294 3.442939 14.613927 53 75 89
0.683604 -1.813151 15.862801 128 113 108
0.634143 -1.780875 15.956220 126 102 98
0.662383 -1.293354 15.829133 66 58 55
0.589932 -1.067890 15.105925 199 206 173
0.584723 -0.839002 14.879786 196 171 140
0.500218 -0.509973 14.628377 177 178 146
0.696733 -0.621786 14.839504 139 136 127
0.577719 -0.331960 14.638522 162 143 113
0.522417 0.076509 14.592011 34 46 46
0.580567 0.288754 14.680906 152 164 164
0.574124 0.664096 14.823098 111 128 148
0.520771 0.708516 14.858242 27 30 49
0.619498 0.894879 15.055654 29 27 40
0.544275 1.235436 5.514868 60 57 52
0.515907 2.874525 15.986631 67 72 68
0.580642 3.124042 14.870728 118 113 94
0.864322 -1.005223 15.491180 174 146 107
0.765415 -0.760212 14.881639 195 160 132
0.767306 -0.674074 14.832498 180 145 115
0.881255 -0.223863 14.695431 88 70 70
0.704938 0.033806 14.670629 147 150 141
0.733017 0.436743 14.799744 32 41 48
0.709841 0.545516 14.834622 29 37 60
0.832246 0.650109 15.056723 92 124 137
0.813453 0.794059 15.096467 96 122 123
0.852659 2.766432 15.774512 129 116 84
0.731778 2.995279 15.141843 70 45 49
0.737039 3.164172 14.981808 62 53 82
0.896690 3.370878 15.033038 37 42 82
1.004883 -1.716541 15.430684 102 77 70
0.982898 -1.110374 15.559935 113 98 95
0.903031 -0.926145 15.269372 171 145 118
0.947441 -1.052406 15.633354 75 62 53
0.956902 -0.808171 15.162074 173 132 102
1.083565 -0.890153 15.400297 60 49 43
0.951996 -0.526809 14.929967 151 113 92
1.057778 -0.675671 15.182692 163 132 101
0.949678 0.002017 14.819716 137 119 97
1.032012 0.093870 14.919467 44 39 46
1.073863 0.148347 14.974298 108 99 94
0.980152 0.435154 15.013447 25 39 48
0.942337 0.722040 2.742816 65 75 67
0.924382 0.825388 15.224425 81 91 100
0.907651 2.912162 15.654870 40 37 44
1.077741 3.252702 15.286352 25 36 58
0.997895 3.304171 15.255353 26 26 50
1.252367 -1.666969 15.331115 98 97 79
1.295516 -1.049644 15.408815 112 89 83
1.176163 -0.703922 14.551005 50 39 33
1.111474 -0.585099 15.237869 46 37 30
1.123851 -0.456951 15.119027 137 100 73
1.145773 -0.224875 15.082674 140 110 82
1.283869 1.636421 15.358874 125 113 113
1.241827 2.278185 15.542370 87 73 70
1.296296 2.311120 15.478739 180 189 170
1.204531 2.842054 12.682633 20 40 67
1.262945 3.097243 15.538309 114 94 103
1.237977 3.398729 16.145002 69 74 103
1.254494 3.668826 17.322108 69 74 103
1.453036 -1.743915 14.973903 102 100 88
1.300460 -1.775254 15.104104 89 91 80
1.488682 -1.288273 14.980121 170 168 127
1.443754 -0.939380 15.099373 143 122 127
1.341441 -0.440560 15.224299 117 93 89
1.473459 -0.155877 15.147716 100 79 76
1.445430 1.238710 15.447616 134 159 163
1.425908 1.755822 15.632834 138 164 163
1.314273 1.938623 15.463432 89 86 107
1.373984 2.306476 15.629907 140 167 162
1.361495 2.869826 15.656972 129 150 155
1.387265 2.725957 15.733146 117 153 165
1.471341 2.987752 15.858994 31 33 45
1.519741 -1.787152 14.930218 213 225 211
1.511566 -1.526156 14.928638 155 154 110
1.573059 -1.202795 15.040487 64 56 67
1.556847 -1.071957 15.092086 109 85 75
1.534340 -0.874393 15.061877 103 81 70
1.506764 -0.537692 15.150742 92 68 81
1.671899 -0.676401 15.350920 128 149 150
1.663726 -0.030056 15.464889 136 145 142
1.636723 0.264618 15.495704 143 162 168
1.512043 1.578453 15.639515 112 144 139
1.513664 2.344897 15.755266 63 65 64
1.573909 2.983596 15.894705 143 217 255
1.706905 -1.557264 15.224374 131 146 143
1.864891 -1.174767 15.381725 81 77 78
1.745099 -1.041098 15.332922 140 154 155
1.729980 -0.649344 15.395285 133 148 143
1.728026 2.997091 15.948813 148 221 255
1.964903 -1.714656 15.297700 127 122 90
1.905532 -1.596396 15.259405 119 124 94
1.955558 -1.186417 15.399810 215 208 179
-11.266835 -3.316872 64.889333 122 148 161
-10.155029 -4.320031 64.311124 182 209 238
-9.673934 -11.116012 54.939177 146 183 165
-9.495567 -17.920548 54.115747 214 230 246
-9.450320 -10.865628 58.532023 57 70 87
-9.130882 -11.170838 55.718939 143 148 170
-9.044315 -6.063748 66.377004 85 117 116
-8.498068 -5.069588 66.058337 217 240 255
-7.365744 -2.873621 55.798059 237 241 250
-7.477666 -1.733471 12.657713 178 203 199
-6.976873 -3.800789 59.507866 139 163 175
-6.727718 -13.540424 55.306460 237 247 255
-6.656267 3.684350 14.667320 162 172 174
-6.334952 -11.440637 58.812543 12 13 17
-6.488629 -6.099895 68.044202 80 119 100
-5.009829 -10.570789 54.024727 160 152 139
-4.505290 2.704747 15.308522 191 194 185
-4.639480 2.788402 15.525263 74 107 138
-4.526933 3.090506 14.935616 75 84 89
-4.682431 3.014465 15.607844 156 225 255
-4.504098 3.218749 15.499342 75 84 89
-4.568698 3.214631 15.625119 91 93 88
-4.648021 3.312440 15.635764 55 81 118
-4.347479 2.823155 15.079389 44 64 101
-4.488534 2.906784 15.609104 53 76 118
-4.467470 3.256060 15.366471 130 135 128
-4.283517 0.020031 4.817476 108 96 106
-4.244129 2.791578 15.047304 130 156 181
-4.201480 2.978017 14.935426 126 158 169
-4.194762 3.045316 15.126674 119 151 172
-4.173443 3.297892 15.021817 54 51 94
-4.131690 3.196850 15.186843 106 124 126
-3.919515 2.846848 14.726530 47 56 111
-3.704076 2.887264 14.523347 40 47 99
-3.751491 3.334951 14.620924 94 86 123
-3.667947 0.135607 18.614867 219 217 205
-3.600119 2.448775 16.058386 148 217 255
-3.524118 2.622457 15.275315 178 177 172
-3.529153 2.554747 15.851945 45 59 62
-3.620170 2.800781 13.932581 46 53 99
-3.530133 2.894991 14.279716 41 50 107
-3.614227 2.760867 15.071415 164 178 189
-3.648387 2.735781 15.310900 62 61 59
-3.660620 3.035521 14.544600 121 140 146
-3.378591 2.488937 15.337363 187 191 177
-3.463054 2.466570 15.690477 76 86 96
-3.352380 2.574681 15.253194 179 185 181
-3.435945 2.800371 14.663548 167 166 182
-3.455872 2.774502 14.768604 62 72 64
-3.466663 2.914819 14.246895 48 53 109
-3.328209 3.218263 14.198853 139 177 198
-3.391609 3.222076 14.322088 138 170 191
-3.344612 3.473961 14.199158 24 39 82
-3.251508 2.462351 15.331308 88 90 89
-3.233381 2.389847 16.307888 226 242 242
-3.220317 2.580122 15.207655 35 41 55
-3.278808 2.899026 14.518154 144 139 162
-3.278659 2.992260 14.107611 48 55 110
-3.122413 3.118677 15.875154 162 165 180
-3.165974 3.354533 13.977289 55 51 68
-2.952327 -0.891905 7.509827 31 35 34
-2.933763 2.481416 15.162628 128 128 118
-2.997005 2.378186 16.420792 226 244 244
-3.040530 2.675795 14.237295 133 131 145
-3.047953 2.787592 15.017911 115 118 135
-2.920125 3.041821 13.631821 30 35 64
-2.920378 3.242751 13.676305 20 37 57
-2.985926 3.122851 13.771225 128 152 164
-3.081334 3.419460 13.943077 97 86 129
-2.818868 -0.911294 7.723314 27 31 30
-2.733221 2.086265 16.881374 160 226 250
-2.847933 2.506716 15.119406 111 126 123
-2.795277 2.881001 13.670129 43 45 42
-2.857067 2.803731 14.027022 111 108 139
-2.784454 2.866035 14.111652 145 168 182
-2.816135 2.974801 13.445078 48 49 105
-2.892667 2.971468 13.570600 49 53 101
-2.830982 3.239009 13.629973 89 105 128
-2.832587 3.396536 13.637110 37 35 46
-2.622030 1.716273 16.780088 211 217 229
-2.632495 2.006715 16.755985 144 113 66
-2.606323 2.299950 16.720996 110 96 69
-2.656146 2.358309 16.764309 89 70 66
-2.697928 3.065114 13.428175 28 39 59
-2.560508 2.921751 13.602611 153 169 185
-2.539214 3.263958 13.395472 118 148 182
-2.524956 3.348865 12.840334 57 53 68
-2.555132 3.306846 13.402972 100 120 153
-2.636218 3.403534 13.534889 126 148 172
-2.395021 1.825989 16.681306 139 113 78
-2.312784 2.631540 15.015158 12 16 19
-2.439316 2.516926 16.056582 230 244 247
-2.482988 2.884764 13.682259 42 41 39
-2.451924 2.806209 15.146228 87 89 88
-2.354440 2.925572 13.690878 147 161 174
-2.464484 3.027368 13.740640 134 129 151
-2.446073 3.162526 13.231818 101 125 149
-2.316508 3.477691 13.099887 44 37 53
-2.405210 3.459961 13.158301 53 48 68
-2.209419 -0.047391 15.726810 100 112 154
-2.260639 2.136651 16.713082 56 57 61
-2.116777 2.347880 16.062694 30 32 29
-2.281018 2.698899 14.351878 213 232 230
-2.185460 2.509468 15.341188 99 110 130
-2.100473 2.883942 13.607136 14 25 31
-2.205883 2.801279 14.237395 164 175 179
-2.231533 2.910525 13.624715 49 55 51
-1.937330 1.761410 16.482398 67 69 64
-2.027735 2.150284 10.768166 83 88 92
-1.913694 2.308611 13.504740 57 78 121
-2.085197 2.374520 16.161735 21 25 24
-1.951062 2.675354 13.457804 78 108 160
-2.035526 3.029324 12.789308 107 95 115
-2.046117 2.982840 13.375621 134 123 140
-1.902552 3.266658 12.672931 113 144 173
-1.979323 3.248318 12.727235 118 144 159
-1.960868 3.324426 12.619900 103 139 165
-1.909856 3.512317 12.777628 101 121 146
-1.862545 1.649802 18.629709 166 225 255
-1.855882 1.782411 16.441362 46 69 61
-1.732321 2.058636 14.526402 20 36 25
-1.700447 2.232575 13.510779 96 131 161
-1.894090 2.287640 15.404765 231 244 252
-1.767579 2.413180 13.498935 62 65 84
-1.806620 2.364981 13.503986 152 174 187
-1.829637 2.555239 13.465875 166 192 193
-1.745275 3.048091 13.575535 112 106 118
-1.751266 3.165470 12.461732 170 145 174
-1.860650 3.113784 12.600305 149 139 163
-1.767727 3.443094 12.556967 47 46 77
-1.891601 3.460710 12.701173 68 80 104
-1.796139 3.560126 12.599397 78 73 113
-1.665555 -1.874185 16.773386 102 90 94
-1.554543 -0.999044 18.141019 214 211 196
-1.548741 -0.734375 17.462974 67 56 64
-1.504462 0.918124 18.609802 91 112 143
-1.561202 1.240176 18.496248 103 102 133
-1.631975 1.664285 16.552808 170 151 118
