ply
format ascii 1.0
element vertex 1205
property float x
property float y
property float z
property uchar diffuse_red
property uchar diffuse_green
property uchar diffuse_blue
end_header
-38.034539 -22.738600 103.072939 20 82 95
-2.891605 0.609750 7.795767 140 117 86
-2.971639 -0.632512 7.944404 193 203 230
-2.679949 0.236630 7.248137 56 28 6
-2.679949 0.236630 7.248137 56 28 6
-2.868597 0.576277 7.756351 130 122 103
-2.868597 0.576277 7.756351 130 122 103
-2.646497 -0.396507 7.161763 200 209 238
-2.873896 0.591743 7.779961 16 0 0
-7.403491 3.067477 20.259441 36 55 85
-2.584298 -0.254977 7.026446 191 202 230
-2.584298 -0.254977 7.026446 191 202 230
-2.693157 0.292616 7.326868 137 131 97
-2.686210 -0.549181 7.329185 201 210 239
-2.806292 0.459514 7.655952 109 99 90
-3.010397 0.435154 8.215652 110 96 93
-2.825124 0.510826 7.737618 111 100 98
-2.555735 -0.204878 7.007023 193 203 230
-2.942701 0.783212 8.103125 0 0 0
-2.724561 -0.705569 7.501247 0 1 30
-2.700525 0.353854 7.436849 106 101 98
-2.795431 0.526852 7.701365 13 11 16
-2.876774 0.668409 7.924091 133 122 90
-2.505830 -0.131072 6.908985 200 210 237
-2.712132 -0.691726 7.499609 207 217 244
-2.625085 -0.476102 7.261132 197 206 235
-2.552420 -0.270658 7.057905 196 207 235
-2.859753 0.663567 7.920840 21 1 0
-2.859753 0.663567 7.920840 21 1 0
-2.689140 0.359421 7.466401 119 115 114
-2.845622 0.648749 7.899328 142 127 88
-2.581698 -0.407492 7.184056 206 215 244
-2.793922 0.584785 7.793517 106 101 108
-2.431467 -0.111992 6.955810 190 198 217
-2.431467 -0.111992 6.955810 190 198 217
-2.578319 -0.414261 7.205667 25 34 63
-0.600850 0.265665 1.956093 34 59 99
-2.519089 -0.286408 7.076905 187 198 226
-2.519089 -0.286408 7.076905 187 198 226
-2.555167 -0.391143 7.180965 197 206 235
-2.637691 -0.636813 7.443265 194 204 231
-2.637691 -0.636813 7.443265 194 204 231
-2.655492 -0.698047 7.514417 188 200 226
-2.655492 -0.698047 7.514417 188 200 226
-2.588093 -0.537440 7.333894 203 212 241
-2.712427 -0.352844 7.107392 194 205 233
-2.836676 0.346690 8.781536 190 196 218
-2.646109 -0.719574 7.534390 0 0 30
-21.559919 -14.993267 61.722391 159 217 229
-2.534750 -0.467662 7.275159 192 201 230
-2.534750 -0.467662 7.275159 192 201 230
-2.568652 -0.569213 7.374109 33 42 71
-2.471562 -0.294112 7.106836 201 212 240
-2.780942 0.668798 7.999877 177 187 212
-2.436125 -0.223679 7.050812 193 205 231
-2.617372 -0.770628 7.611169 13 26 61
-2.290096 -0.282441 7.546216 191 201 228
-2.586412 -0.728145 7.546635 0 5 35
-2.557177 -0.628814 7.458540 21 32 60
-20.894005 -15.261084 61.387959 130 176 166
-4.101943 2.128827 9.951860 47 87 148
-2.376410 -0.120481 6.965108 188 196 217
-2.799514 0.822810 8.706684 3 2 18
-2.689405 1.764053 7.886941 32 90 153
-2.444464 -0.364282 7.178077 189 200 228
-0.658239 0.552345 2.507551 34 81 153
-2.365457 -0.148254 6.979756 199 209 234
-2.559415 -0.741266 7.566983 11 24 58
-5.085247 0.167434 20.449530 30 37 55
-2.367259 -0.187855 7.015003 182 192 217
-2.367259 -0.187855 7.015003 182 192 217
-20.093819 -14.708029 60.048106 174 220 207
-2.509476 -0.648551 7.481703 192 201 230
-2.509476 -0.648551 7.481703 192 201 230
-2.391025 0.076564 7.141475 34 28 28
-2.449262 0.207658 7.308408 16 21 40
-2.261910 -0.488925 6.870162 37 48 76
-0.730035 0.810792 4.291134 31 87 161
-2.527560 -0.741960 7.577868 195 209 238
-2.442947 -0.504987 7.341571 202 213 241
-2.442947 -0.504987 7.341571 202 213 241
-3.612120 -0.303903 17.924340 189 197 218
-2.406901 -0.415325 7.245850 190 199 228
-2.390954 -0.370905 7.191774 196 205 234
-2.417007 0.164830 7.302582 189 196 215
-2.422908 0.212653 7.344199 187 195 214
-2.338373 -0.294543 7.129034 187 198 226
-17.324742 -10.761247 53.045242 72 121 162
-2.426886 -0.583929 7.423227 193 202 231
-2.426886 -0.583929 7.423227 193 202 231
-2.440295 -0.626440 7.483409 195 204 233
-2.440295 -0.626440 7.483409 195 204 233
-2.423677 -0.594884 7.445105 26 35 64
-2.308851 -0.254556 7.120665 51 62 90
-2.292913 -0.232310 7.078861 189 201 227
-2.409245 -0.583108 7.439330 205 214 243
-2.409245 -0.583108 7.439330 205 214 243
-4.124047 0.433848 12.915613 196 204 225
-2.439924 -0.745915 7.613819 70 86 112
-3.988566 -0.839858 10.217643 20 29 58
-3.988566 -0.839858 10.217643 20 29 58
-0.409078 0.040175 2.070630 10 21 43
-2.348902 -0.536351 7.388724 17 26 55
-2.348902 -0.536351 7.388724 17 26 55
-12.358162 2.787904 26.843871 151 153 150
-2.341740 0.194909 7.401436 185 193 214
-0.922162 -0.628418 2.842573 66 82 72
-0.391846 0.004239 1.164373 41 36 43
-2.272172 -0.131663 6.948865 196 201 221
-2.272172 -0.131663 6.948865 196 201 221
-2.529909 0.563357 8.118827 174 184 211
-2.221544 -0.006366 7.109561 83 83 81
-2.285668 -0.457686 7.315024 192 201 230
-2.360134 -0.711648 7.569723 204 215 243
-16.256759 -10.180581 52.408311 189 219 255
-3.955263 0.236235 16.986947 188 198 223
-2.319365 0.227532 7.480676 169 180 202
-2.319110 0.227484 7.480764 168 179 201
-4.271963 0.575796 14.978056 0 4 29
-16.549954 -10.233640 53.924048 44 90 126
-2.178638 -0.040341 7.105677 181 173 170
-2.442830 0.323893 7.722133 0 10 35
-2.248112 -0.451926 7.329283 187 196 225
-2.176855 -0.014357 7.119718 128 114 103
-2.205091 0.134958 7.235938 7 16 33
-2.225707 -0.484014 7.357955 202 211 240
-1.414391 0.504773 5.225353 143 149 161
-1.542997 0.298858 5.049120 171 180 209
-2.306946 0.320202 7.671015 0 4 29
-2.150175 -0.282619 7.166592 188 198 225
-2.150175 -0.282619 7.166592 188 198 225
-4.886368 0.678884 15.754551 183 193 218
-2.592858 -0.330180 6.828525 45 55 82
-2.592858 -0.330180 6.828525 45 55 82
-2.136632 -0.272596 7.161343 28 38 65
-2.262373 0.221823 7.596461 186 194 215
-2.135101 -0.296402 7.181267 195 205 232
-2.145731 -0.354113 7.240613 76 86 113
-2.168981 0.240453 7.321669 176 187 207
-2.209598 -0.605731 7.499086 182 191 220
-2.433333 -0.544775 7.232486 182 191 220
-2.150342 -0.418457 7.327410 190 200 227
-2.150342 -0.418457 7.327410 190 200 227
-1.878335 -0.457990 7.691331 183 193 220
-2.106634 -0.283829 7.190406 201 211 238
-2.097123 -0.271249 7.166018 184 194 221
-2.485271 0.812881 8.534845 68 64 61
-2.088586 -0.308152 7.188315 198 208 235
-2.088586 -0.308152 7.188315 198 208 235
-2.232793 -0.795093 7.711975 193 204 234
-2.232793 -0.795093 7.711975 193 204 234
-2.075992 -0.276009 7.166555 190 200 227
-2.075992 -0.276009 7.166555 190 200 227
-2.170666 -0.635266 7.535473 13 20 49
-2.170666 -0.635266 7.535473 13 20 49
-2.318408 1.645986 8.047158 94 163 240
-2.184899 -0.691489 7.609689 32 41 70
-2.068767 1.562673 8.040641 42 114 188
-2.174174 -0.143251 6.934160 192 199 218
-2.174174 -0.143251 6.934160 192 199 218
-2.137798 -0.610259 7.513751 191 198 227
-2.137798 -0.610259 7.513751 191 198 227
-2.193284 -0.799177 7.723164 174 185 215
-3.069250 -0.675965 8.728923 28 35 64
-2.118501 -0.611984 7.525400 197 207 234
-2.145541 -0.707924 7.632486 202 211 240
-2.145541 -0.707924 7.632486 202 211 240
-2.145541 -0.707924 7.632486 202 211 240
-1.696522 -0.518823 7.488946 204 214 241
-4.310980 0.408084 15.292343 0 6 20
-2.078918 -0.545721 7.473278 196 203 231
-2.078918 -0.545721 7.473278 196 203 231
-2.050436 -0.287904 7.108606 191 201 226
-2.050436 -0.287904 7.108606 191 201 226
-2.051437 -0.529155 7.460649 185 192 220
-2.051437 -0.529155 7.460649 185 192 220
-2.071740 0.162392 7.566154 108 98 89
-1.986762 -0.012240 7.279638 118 98 87
-148.512059 0.331277 473.088927 118 101 83
-2.009054 -0.463042 7.387002 189 199 226
-13.426565 -9.621137 49.502027 192 212 255
-2.623543 0.799035 8.549629 67 57 45
-2.081618 1.590289 8.073533 96 165 243
-1.936781 -0.212361 7.160002 201 209 230
-1.994348 -0.275214 7.095540 196 207 229
-2.034441 -0.630571 7.563544 188 195 223
-1.947201 -0.344586 7.297352 186 193 219
-2.643019 0.796659 8.664862 79 65 56
-2.052868 -0.771772 7.717175 182 191 222
-1.157825 0.346691 3.891032 93 78 75
-1.948179 0.020629 7.333253 56 100 145
-17.505202 -14.163979 66.237938 172 186 223
-2.017265 -0.664702 7.614332 15 22 50
-1.972960 -0.486332 6.681713 188 195 223
-1.972960 -0.486332 6.681713 188 195 223
-2.654858 0.794754 8.745342 81 66 59
-1.983784 -0.596900 7.539081 18 25 53
-1.983784 -0.596900 7.539081 18 25 53
-6.099662 0.049691 34.941135 24 21 28
-1.908940 -0.004236 7.338721 117 101 88
-1.908940 -0.004236 7.338721 117 101 88
-2.675273 -0.722861 9.411215 197 207 234
-1.944115 1.553064 7.751682 97 164 242
-1.915552 -0.507507 6.489592 187 194 222
-2.854321 0.542453 9.423250 88 86 91
-24.203010 -0.821861 97.738904 191 186 180
-1.855606 -0.023167 7.296025 48 98 161
-2.720845 0.788829 9.085488 74 61 53
-1.937109 -0.689722 7.619969 196 203 231
-1.937109 -0.689722 7.619969 196 203 231
-1.587920 -0.508507 6.791269 196 203 231
-1.969231 -0.811534 7.790587 197 207 234
-1.994442 0.404962 8.035388 2 8 44
-1.994442 0.404962 8.035388 2 8 44
-1.864607 -0.687530 7.665034 26 33 59
-1.773926 -0.321723 7.297876 182 190 213
-1.773926 -0.321723 7.297876 182 190 213
-1.828390 0.119848 7.527626 7 19 59
-1.828390 0.119848 7.527626 7 19 59
-1.797464 -0.473695 7.460537 196 203 229
-1.777596 -0.404782 7.378999 196 203 229
-1.777596 -0.404782 7.378999 196 203 229
-1.841795 -0.704089 7.697385 194 201 227
-1.814001 -0.611128 7.587958 30 37 63
-1.814001 -0.611128 7.587958 30 37 63
-1.865595 -0.808004 7.817744 180 186 210
-1.865595 -0.808004 7.817744 180 186 210
-1.940601 0.420168 8.143469 0 2 36
-1.745676 -0.345843 7.335763 193 201 224
-1.898045 -0.296263 5.748905 130 137 163
-1.768571 -0.503790 7.494815 174 181 207
-1.727279 -0.360520 7.334467 193 201 224
-1.839451 -0.838206 7.854824 195 200 222
-2.389162 0.450920 10.249022 0 5 41
-1.751981 0.082673 7.619428 179 170 163
-1.670666 -0.282644 7.284104 0 0 23
-1.897051 1.531337 8.270441 72 137 217
-1.744342 -0.648012 7.652836 193 200 226
-1.738759 -0.697425 7.696713 200 207 233
-1.738759 -0.697425 7.696713 200 207 233
-1.872981 1.576675 8.307325 82 147 227
-1.639358 -0.341780 7.359868 195 203 226
-2.185484 0.738143 7.442471 141 147 143
-1.658602 -0.474157 7.474588 181 188 214
-1.658602 -0.474157 7.474588 181 188 214
-2.373203 0.228248 10.627804 180 176 167
-1.690313 -0.644359 7.651483 23 30 56
-1.690313 -0.644359 7.651483 23 30 56
-1.818623 1.550116 8.286338 84 149 229
-1.715772 -0.839147 7.881010 182 190 211
-1.580065 -0.279111 7.306822 1 9 30
-1.580065 -0.279111 7.306822 1 9 30
-1.720628 -0.919932 7.976351 0 0 10
-1.663306 -0.704626 7.729112 33 39 63
-1.607379 -0.422460 7.474223 179 186 212
-1.590504 -0.371197 7.409622 41 49 68
-1.630118 -0.600281 7.630841 178 185 211
-1.575014 -0.361461 7.393935 194 202 221
-1.575014 -0.361461 7.393935 194 202 221
-1.531971 -0.494127 6.815533 54 61 87
-1.531971 -0.494127 6.815533 54 61 87
-1.497716 -0.345218 7.770484 108 114 136
-0.146468 0.235189 0.769840 100 107 99
-1.593488 -0.388830 8.367637 1 8 27
-1.851686 0.728043 8.856987 38 10 9
-1.851686 0.728043 8.856987 38 10 9
-1.665607 -0.929047 7.988851 9 9 19
-1.812413 0.636567 8.713947 41 2 5
-1.778260 0.574451 8.574777 40 4 4
-1.781458 0.601177 8.585155 56 18 15
-1.827344 0.716762 8.826093 166 147 141
-1.797500 0.646579 8.710637 167 148 142
-1.785380 0.616462 8.668508 176 148 144
-1.781342 0.631166 8.693614 44 2 3
-1.808813 0.696511 8.802614 65 23 25
-1.804387 0.713951 8.837021 183 159 157
-1.804387 0.713951 8.837021 183 159 157
-1.583500 -0.770765 7.829016 190 195 215
-1.797763 0.721131 8.878676 24 6 6
-1.797763 0.721131 8.878676 24 6 6
-1.726765 0.537168 8.545123 82 43 36
-0.309166 -0.012734 1.412909 91 58 51
-1.593733 -0.867892 7.967452 191 196 216
-1.466032 -0.316182 7.376551 0 4 26
-1.657005 1.566245 8.411353 21 82 162
-1.564380 -0.866172 7.948815 194 199 218
-1.519073 -0.732688 7.777231 188 194 216
-1.519073 -0.732688 7.777231 188 194 216
-1.548152 -0.884329 7.965900 197 202 222
-1.663916 0.524517 8.564460 109 48 43
-1.720128 0.709604 8.871148 16 3 0
-1.720128 0.709604 8.871148 16 3 0
-1.644453 -0.571303 7.910449 170 176 200
-1.691258 0.649856 8.797474 54 19 15
-1.508165 -0.814123 7.887578 195 200 220
-1.508165 -0.814123 7.887578 195 200 220
-1.398360 -0.212334 7.319175 96 46 47
-1.672863 0.628700 8.770108 155 138 128
-1.596556 1.525660 8.413171 27 90 169
-1.714261 -0.754321 9.441300 183 189 213
-1.450268 -0.019062 7.664473 84 91 40
-23.708255 -12.257386 81.853616 9 17 28
-1.330957 0.415735 7.660310 164 148 133
-4.374121 -0.467220 19.486010 195 181 178
-1.464639 -0.749596 7.848347 187 192 212
-1.464639 -0.749596 7.848347 187 192 212
-1.389867 -0.129123 7.475809 84 84 56
-1.582594 0.493100 8.535473 154 142 126
-2.369114 -2.093827 12.898240 0 2 15
-2.369114 -2.093827 12.898240 0 2 15
-1.360100 -0.392238 7.466301 180 187 206
-1.345869 -0.336330 7.418843 0 2 24
-1.351383 -0.399843 7.488020 55 61 83
-1.351383 -0.399843 7.488020 55 61 83
-2.294074 -2.125608 12.789270 18 26 39
-1.578858 0.603278 8.819242 37 2 0
-1.578858 0.603278 8.819242 37 2 0
-2.781822 -0.780821 8.935599 176 181 200
-1.363774 -0.544864 7.621120 175 181 205
-1.545566 0.542295 8.684510 63 25 22
-1.514245 0.485312 8.544724 40 11 3
-1.530573 0.522367 8.650857 182 162 153
-1.502359 0.451882 8.510020 51 16 10
-1.502359 0.451882 8.510020 51 16 10
-1.305957 -0.323552 7.422602 0 0 23
-1.505294 0.469389 8.551396 187 163 153
-1.489787 0.418675 8.479782 61 26 20
-1.489787 0.418675 8.479782 61 26 20
-1.396320 -0.870224 7.969236 185 188 203
-1.460212 0.360115 8.361999 63 33 25
-1.297201 -0.331507 7.440772 113 115 136
-1.555583 0.682109 8.961773 26 9 2
-1.555583 0.682109 8.961773 26 9 2
-1.463603 0.407644 8.439509 187 167 156
-1.341047 -0.668536 7.769374 168 174 196
-1.341047 -0.668536 7.769374 168 174 196
-1.472788 0.531185 8.702695 43 6 0
-1.474528 0.551033 8.743653 169 142 133
-0.644973 0.596794 3.150101 73 134 214
-1.325448 -0.779775 7.885587 195 198 217
-1.468257 0.554826 8.798170 46 7 2
-1.468257 0.554826 8.798170 46 7 2
-1.487429 0.677638 9.011198 39 16 10
-1.487429 0.677638 9.011198 39 16 10
-1.391942 0.379546 8.446163 177 153 143
-1.391942 0.379546 8.446163 177 153 143
-1.297910 -0.784746 7.887329 177 182 201
-1.305331 -0.943202 8.240364 178 184 200
-1.305331 -0.943202 8.240364 178 184 200
-1.450972 0.611823 8.857346 55 24 19
-1.450972 0.611823 8.857346 55 24 19
-1.269427 -0.659465 7.765765 192 198 220
-1.217961 -0.355789 7.470771 0 0 18
-2.524272 0.721780 8.468706 155 143 129
-1.401040 0.477554 8.637515 177 153 143
-1.401040 0.477554 8.637515 177 153 143
-1.408543 0.496361 8.690729 39 0 0
-1.272504 -0.777712 7.919876 195 200 219
-1.253903 -0.734491 7.856924 181 186 206
-1.218833 -0.530836 7.652578 176 184 205
-1.218833 -0.530836 7.652578 176 184 205
-1.367318 0.429950 8.568081 53 23 13
-1.354719 0.413167 8.548167 181 163 149
-1.219367 -0.670059 7.793431 187 189 210
-1.183554 -0.453216 7.566663 179 184 206
-1.183554 -0.453216 7.566663 179 184 206
-1.200524 -0.618755 7.738384 172 177 196
-1.250164 -0.944478 8.071675 2 0 11
-1.363281 0.565181 8.860914 166 137 123
-1.226611 -0.920655 8.061643 175 177 189
-1.226611 -0.920655 8.061643 175 177 189
-1.115246 -0.441758 7.548038 189 194 213
-1.173516 -0.817004 7.962659 191 194 209
-1.088218 -0.704902 8.010324 174 179 198
-1.121167 -0.516546 7.647181 174 181 199
-1.126590 -0.634499 7.778543 176 181 200
-1.096296 -0.458380 7.584262 181 184 203
-1.263214 0.492515 8.770156 141 128 112
-1.236761 0.406276 8.626351 89 61 50
-1.236761 0.406276 8.626351 89 61 50
-1.092641 -0.502014 7.646530 188 191 210
-1.147039 -0.897514 7.878760 174 177 184
-1.147039 -0.897514 7.878760 174 177 184
-1.061458 -0.552424 7.704390 76 79 98
-1.088222 -0.764130 7.926985 183 186 201
-1.088222 -0.764130 7.926985 183 186 201
-3.301985 -6.357720 22.167220 54 46 35
-1.093546 -0.878687 8.032839 184 186 199
-1.093546 -0.878687 8.032839 184 186 199
-1.011044 -0.397852 7.559031 182 185 204
-1.033033 -0.767121 7.914865 185 188 203
-1.060003 -0.995325 8.171729 189 187 192
-0.880180 -1.001153 10.157333 193 196 215
-0.967213 -0.432970 7.608792 191 194 211
-0.967213 -0.432970 7.608792 191 194 211
-0.950660 -0.390676 7.573817 184 185 203
-0.987426 -0.734807 7.891089 198 199 217
-0.986108 -0.779977 7.955553 173 175 190
-0.977695 -0.709251 7.883880 182 185 202
-1.020172 -0.358170 5.714067 62 64 85
-1.020172 -0.358170 5.714067 62 64 85
-0.945757 -0.542282 7.728737 186 189 208
-0.945757 -0.542282 7.728737 186 189 208
-0.963908 -0.772110 7.971284 176 178 193
-0.963908 -0.772110 7.971284 176 178 193
-1.172604 1.904741 9.255577 155 143 121
-0.933086 -0.743568 7.913639 194 197 212
-0.897607 -0.498071 7.696102 189 192 211
-0.927422 -0.698035 7.766810 187 190 205
-0.901154 -0.699177 7.874334 202 201 217
-0.916232 -0.856039 8.041823 179 179 191
-0.916232 -0.856039 8.041823 179 179 191
-0.876994 -0.514460 7.700772 177 180 199
-0.876994 -0.514460 7.700772 177 180 199
-0.756413 -1.598828 12.175910 188 188 198
-0.756413 -1.598828 12.175910 188 188 198
-0.855619 -0.600430 7.777202 178 181 200
-0.855619 -0.600430 7.777202 178 181 200
-0.842179 -0.167410 7.683136 129 117 103
0.104444 1.167128 7.328908 46 59 101
-0.935361 1.424468 8.758998 31 88 155
-0.818773 -1.135937 10.708230 185 187 202
-0.927756 1.431266 8.722394 24 82 146
-0.808939 -0.686261 7.896347 189 188 206
-0.760321 -0.312147 7.550539 15 7 5
-0.792474 -0.768400 7.965907 195 197 212
-0.681146 -0.876583 9.146341 119 120 138
-0.754698 -0.486588 7.701938 174 177 194
-0.754698 -0.486588 7.701938 174 177 194
-0.825062 -0.672606 7.515404 178 179 197
-0.750531 -0.543390 7.756132 178 181 196
-0.750531 -0.543390 7.756132 178 181 196
-1.065890 1.874627 9.192687 140 129 109
-0.839067 0.296072 8.681024 150 144 144
-0.756490 -0.695082 7.913888 195 196 214
-0.775274 -0.011924 8.135579 156 139 132
-0.775274 -0.011924 8.135579 156 139 132
-0.766786 -0.874375 8.084928 187 186 200
-0.762521 -0.048717 8.058040 21 4 0
-0.631314 -0.900295 9.254137 177 178 196
-0.717433 -0.266665 7.682528 37 16 13
-0.458104 -1.341429 3.430034 129 108 65
-0.738180 -0.866885 8.119737 187 187 199
-0.717036 -0.108945 7.969772 24 1 0
-0.693520 -0.551504 7.761069 172 175 192
-0.701122 -0.153906 7.851991 28 5 0
-3.627515 5.179632 21.647324 132 108 62
-0.776311 1.380739 8.812257 103 155 228
-0.680655 -0.215446 7.784918 113 90 84
-1.037868 -3.871820 11.943567 56 48 29
-0.693541 -0.969837 8.222421 198 193 199
-0.660804 -0.787748 8.000105 175 177 192
-0.663345 -0.971410 8.210664 145 143 148
-0.624524 -0.245591 7.794994 77 50 41
-0.641054 -0.807906 8.047708 191 190 206
-0.693066 1.400101 8.830935 46 99 169
-0.693066 1.400101 8.830935 46 99 169
-0.638553 -0.909054 8.169375 182 182 194
-0.638553 -0.909054 8.169375 182 182 194
-0.801856 -0.287403 5.169171 56 59 78
-0.638011 -0.980181 8.241420 186 187 191
-0.596424 -0.587107 7.820982 186 189 208
-0.596424 -0.587107 7.820982 186 189 208
-1.078355 0.244311 5.289957 151 143 132
-0.670653 1.391689 8.869524 35 88 156
-0.578378 -0.604356 7.846577 182 183 203
-0.578378 -0.604356 7.846577 182 183 203
-0.561906 -0.345799 7.650836 17 6 2
0.104755 0.144609 0.687340 170 146 100
-0.751497 -2.293685 10.414242 158 142 119
-0.522364 -0.845832 7.748592 164 163 177
-0.744624 -2.263248 10.415833 179 159 132
-0.744624 -2.263248 10.415833 179 159 132
-0.554202 -0.539493 7.802526 178 179 197
-0.565088 -0.723009 7.969574 184 186 201
-0.549581 -0.808752 8.047892 188 188 200
-0.521990 -0.604068 7.849919 177 178 196
-0.533554 -0.952761 8.222412 157 155 168
-0.533554 -0.952761 8.222412 157 155 168
-0.510847 -0.587646 7.854713 182 183 201
-0.604505 0.519624 9.326931 66 27 12
-0.490473 -0.356738 7.672139 29 16 10
-0.490473 -0.356738 7.672139 29 16 10
-0.644675 -1.951789 10.432401 138 130 107
-0.644675 -1.951789 10.432401 138 130 107
-0.559327 0.527931 9.360902 40 4 0
-0.639918 -0.807208 7.204261 179 177 190
-0.555321 0.510673 9.338552 109 72 63
-0.477209 -0.818435 8.071593 182 181 197
-0.533231 0.506135 9.347031 24 0 0
-0.445361 -0.825987 8.095221 198 197 211
-0.482044 0.205128 8.747196 177 143 133
-0.432995 -0.274128 7.936148 175 167 154
-0.423919 -0.744877 8.022981 181 180 196
-0.403423 -0.450028 7.746706 191 170 189
-0.276018 -1.242088 9.726636 184 181 192
-0.386424 -0.629205 7.903573 178 180 195
-0.386424 -0.629205 7.903573 178 180 195
0.322090 1.079435 7.022529 57 68 96
-0.370315 -0.571374 7.846399 186 188 203
-0.577614 -0.627472 6.863971 191 191 203
-0.576564 -0.610916 6.894174 191 191 203
-0.377004 -0.883203 8.181316 191 189 200
-0.366355 -0.686522 7.966440 183 182 198
-0.366355 -0.686522 7.966440 183 182 198
-0.384972 0.028591 8.451264 16 0 0
-0.345545 -0.887501 8.185165 191 188 199
-0.560554 0.551875 2.755156 14 61 131
-0.332220 -1.022696 8.319797 190 184 184
-0.319822 -0.948483 8.259883 183 177 187
-0.537584 -0.599207 6.786056 187 184 195
-0.247989 -0.005623 6.191025 178 160 148
-0.337830 0.402306 9.277912 15 0 0
-0.313888 0.178919 8.824152 175 150 143
-0.455695 -0.763558 7.170709 187 184 191
-0.415844 -0.867611 7.422361 100 94 94
-0.267548 -0.777093 8.095485 187 184 195
-0.253906 -0.591417 7.907393 173 175 190
-0.259083 -0.941279 8.258333 178 175 184
-0.259083 -0.941279 8.258333 178 175 184
-0.284355 -2.031522 9.409293 28 14 3
-0.310308 -4.910045 10.073706 125 101 55
-0.220838 -0.647156 7.945704 178 177 191
-0.220838 -0.647156 7.945704 178 177 191
-0.196536 -1.546765 7.725687 23 10 1
-0.484176 -0.584857 6.644341 179 176 185
-0.215031 -1.124259 8.461245 29 18 16
-0.215031 -1.124259 8.461245 29 18 16
-0.215031 -1.124259 8.461245 29 18 16
-0.149874 -0.616321 7.959513 183 185 198
-0.307546 -0.638181 7.155383 195 192 203
-0.127300 -0.992219 8.339498 182 177 183
-0.489984 -0.641080 6.385416 182 177 183
-0.121767 -0.792645 8.113023 184 181 192
-0.120814 -1.192183 8.563348 40 24 9
-0.112702 -0.765706 8.098327 185 182 193
-0.112702 -0.765706 8.098327 185 182 193
-0.143012 0.286730 7.640085 7 0 0
-0.098615 0.225052 9.049454 109 80 66
-0.071459 -0.805016 8.148925 190 187 196
-0.071956 -0.633439 7.993625 194 194 206
-0.071956 -0.633439 7.993625 194 194 206
-0.065216 -0.615774 7.958981 190 189 203
-0.065216 -0.615774 7.958981 190 189 203
-0.106213 4.217001 15.196221 104 83 40
-0.054506 -0.771671 8.121668 189 186 195
-0.054506 -0.771671 8.121668 189 186 195
-0.195888 -0.658247 7.221812 182 179 188
-0.027367 -0.013716 8.630356 42 24 12
-0.016035 0.432200 9.525676 14 14 14
0.003278 -0.726178 8.081764 174 171 182
0.003278 -0.726178 8.081764 174 171 182
0.003278 -0.726178 8.081764 174 171 182
0.003502 0.105889 8.842925 31 8 2
0.007010 0.431851 9.534465 4 2 3
0.007010 0.431851 9.534465 4 2 3
0.013221 -0.986737 8.342045 178 172 176
0.013221 -0.986737 8.342045 178 172 176
0.013221 -0.986737 8.342045 178 172 176
0.026105 -1.045597 8.417354 187 178 183
0.042528 -1.008338 8.376959 203 194 197
0.044254 -0.813653 8.166758 190 185 192
0.058575 0.276891 9.256145 22 12 11
0.058575 0.276891 9.256145 22 12 11
0.065737 -0.830308 8.212753 189 184 190
0.078983 0.343438 9.420188 7 1 3
0.095225 -0.887377 8.287966 194 187 194
0.093024 -0.776373 8.138480 184 181 188
-0.416393 -0.460013 5.782149 193 187 189
0.111689 -0.812631 8.188676 186 181 187
0.111689 -0.812631 8.188676 186 181 187
0.128704 0.250132 9.243386 6 3 10
0.069454 0.396793 9.810043 3 0 2
0.137305 0.066674 8.882216 8 6 11
0.179554 -1.124946 9.721574 20 14 18
0.218960 -1.341492 11.574690 20 14 18
0.166183 0.299401 9.395770 4 0 0
0.170973 0.187945 9.161401 5 3 4
0.185181 0.238372 9.275869 5 0 4
0.210951 1.334557 9.247538 181 190 207
-5.405260 3.703827 21.470808 0 3 22
-1.117161 0.125606 6.839947 180 167 151
0.247399 1.163888 9.296785 174 182 201
0.250102 1.187714 9.278515 177 189 205
0.264242 1.169225 9.271501 5 11 23
0.270104 0.178712 9.210392 10 2 0
0.247292 -0.736092 8.143006 16 9 17
0.283919 0.233672 9.312241 13 3 2
0.283919 0.233672 9.312241 13 3 2
0.307778 -1.309516 8.820900 170 141 85
0.339864 0.449414 9.782481 78 46 7
0.333273 1.116052 9.319323 161 174 191
0.018837 0.117264 2.753501 90 65 24
0.342954 0.302334 9.511642 90 65 24
0.334426 1.082747 9.331209 161 172 192
0.333488 1.097973 9.322366 2 7 27
0.333488 1.097973 9.322366 2 7 27
0.331571 0.118385 9.112450 21 5 6
0.349171 1.201984 9.313895 167 174 190
0.349171 1.201984 9.313895 167 174 190
0.295391 -0.940628 7.770505 172 166 170
0.381846 1.394191 9.342648 160 167 185
0.345684 -0.920230 8.360171 182 175 182
0.346306 -0.870248 8.306183 14 7 14
0.390074 1.271484 9.318521 0 3 22
0.390074 1.271484 9.318521 0 3 22
0.470276 -1.420776 10.814661 195 175 150
0.368162 -0.925062 8.359098 186 176 184
0.269921 -0.665870 7.145577 10 3 10
0.417082 -0.187551 8.561873 150 140 128
0.366993 -3.078117 7.295915 22 23 28
0.499315 1.038106 9.410615 0 3 25
0.499315 1.038106 9.410615 0 3 25
0.443721 -3.446564 8.558349 214 191 149
0.439714 -0.601394 8.066466 192 161 143
0.439714 -0.601394 8.066466 192 161 143
-0.888077 -0.081208 4.215918 109 55 45
0.534423 1.276797 9.390863 4 9 28
0.543474 1.323760 9.395479 0 2 24
0.557811 1.292972 9.385939 6 8 29
0.564581 1.344233 9.402278 6 7 28
0.567455 1.374862 9.401402 0 0 23
0.570644 1.401140 9.431795 0 2 24
-0.041368 -0.201047 3.504631 176 156 123
0.627719 -0.540712 8.053122 202 181 160
0.635139 -0.513546 8.084116 196 176 152
0.644144 -0.534113 8.084766 50 24 1
0.644971 -0.501091 8.110294 63 33 9
-0.115732 -0.242261 1.356879 139 140 144
4.209573 -12.166748 57.755696 146 147 151
0.922679 1.225322 10.309766 0 9 21
0.603971 -0.750339 6.150213 182 161 114
0.856858 -1.065497 9.295256 61 57 46
0.634146 -2.096841 6.539932 114 117 126
0.830150 -0.953212 8.857644 72 62 52
0.623310 -0.735337 6.238707 155 162 170
0.818002 -0.145882 7.850051 157 130 85
0.840511 -0.001661 7.956468 155 126 82
0.792606 -2.176948 7.423042 134 119 86
0.982182 0.749595 8.060948 120 146 171
-0.381973 0.440095 6.174641 159 165 179
0.958690 0.365639 6.546501 14 12 13
1.157763 0.512591 8.030902 13 12 10
-4.347235 1.673204 7.420246 158 192 230
-4.328389 1.667652 7.416488 31 55 93
-0.399005 0.292433 0.959826 234 254 255
-4.176022 1.731844 7.259859 144 207 242
-4.176022 1.731844 7.259859 144 207 242
-4.099995 1.839684 7.244033 123 186 230
-4.047476 1.824895 7.288052 128 182 228
-0.792867 0.599935 1.943855 190 213 219
-0.249597 0.277435 1.020450 33 92 172
-3.753958 1.883365 7.829921 168 201 232
-3.724405 1.967604 7.431727 179 223 255
-3.277759 -0.475829 7.098090 6 9 26
-3.276650 -0.461370 7.111063 194 200 226
-3.466661 0.293634 7.554431 66 78 90
-3.248631 -0.438656 7.088412 192 202 227
-3.119899 -0.183213 6.822017 180 187 213
-3.248156 -0.465652 7.116917 195 207 233
-3.053018 -0.036478 6.704336 194 202 223
-3.286719 -0.582686 7.230203 5 12 41
-3.253219 -0.518170 7.169683 6 11 41
-3.253219 -0.518170 7.169683 6 11 41
-2.759744 0.387202 6.063967 60 72 88
-3.084632 -0.137388 6.802529 189 199 224
-3.084632 -0.137388 6.802529 189 199 224
-3.417111 1.891280 7.551312 168 217 255
-3.424332 1.940232 7.567106 143 196 238
-3.424332 1.940232 7.567106 143 196 238
-3.207668 -0.536624 7.205432 10 15 47
-2.977795 -0.060895 6.684818 180 192 218
-2.977795 -0.060895 6.684818 180 192 218
-3.194788 -0.518941 7.178171 13 19 51
-3.194788 -0.518941 7.178171 13 19 51
-3.150651 -0.483869 7.143011 192 203 233
-3.113225 -0.417395 7.071870 184 195 225
-3.099798 -0.388613 7.044275 181 192 222
-3.099798 -0.388613 7.044275 181 192 222
-3.346124 1.996358 7.600199 48 89 155
-2.981919 -0.127198 6.794952 193 204 232
-2.981919 -0.127198 6.794952 193 204 232
-2.939157 -0.028615 6.696954 199 206 232
-3.135760 -0.489186 7.162138 193 204 236
-3.057183 -0.325570 6.991239 187 198 226
-3.548519 1.025139 8.142405 195 210 229
-3.306326 1.672134 7.616750 178 217 248
-3.306326 1.672134 7.616750 178 217 248
-3.037624 -0.373416 7.049871 179 190 220
-3.277686 1.865938 7.612380 184 217 255
-3.277686 1.865938 7.612380 184 217 255
-2.622196 -0.117635 5.973412 173 187 214
-3.142166 -0.641037 7.321915 16 27 55
-3.142166 -0.641037 7.321915 16 27 55
-3.277014 1.921414 7.627651 169 201 239
-3.277014 1.921414 7.627651 169 201 239
-3.111611 -0.583490 7.262270 5 16 46
-3.094242 -0.563908 7.245290 184 193 224
-2.935782 -0.206588 6.898983 183 194 224
-2.935782 -0.206588 6.898983 183 194 224
-3.243755 0.657003 7.633252 112 41 57
-3.003609 -0.390632 7.067655 174 185 213
-3.003609 -0.390632 7.067655 174 185 213
-3.104655 -0.679091 7.381078 197 205 228
-3.062654 -0.595212 7.303879 184 198 225
-0.931360 0.208838 3.332741 109 41 56
-2.895750 -0.242841 6.937962 183 194 224
-3.030089 -0.566061 7.267509 182 194 220
-3.041408 -0.660293 7.374590 179 190 220
-3.021861 -0.628211 7.334829 191 202 230
-3.006708 -0.601574 7.308923 183 197 226
-3.316969 0.923640 8.083266 90 37 53
-3.781164 1.824742 8.259702 45 108 175
-3.132557 1.754189 7.674382 165 214 255
-3.132557 1.754189 7.674382 165 214 255
-3.126183 1.708052 7.678492 49 103 173
-2.864193 -0.363027 7.069400 188 199 227
-2.864193 -0.363027 7.069400 188 199 227
-2.756939 -0.094685 6.822562 178 190 214
-2.756939 -0.094685 6.822562 178 190 214
-2.965708 -0.631558 7.363339 198 208 235
-2.965708 -0.631558 7.363339 198 208 235
-3.099419 1.754344 7.697641 182 221 255
-3.099419 1.754344 7.697641 182 221 255
-2.911976 -0.535401 7.266192 179 190 218
-2.736483 -0.087476 6.841981 177 189 215
-1.891478 -0.060621 4.664644 121 133 157
-2.712529 -0.130224 6.863781 179 191 217
-2.903289 -0.635281 7.363553 182 194 218
-2.842890 -0.470247 7.209373 185 196 224
-2.764680 -0.288212 7.012438 184 195 225
-2.764680 -0.288212 7.012438 184 195 225
-1.981218 0.226726 5.377097 116 95 74
-2.719765 -0.163511 6.908969 186 197 225
-2.719765 -0.163511 6.908969 186 197 225
-3.035795 1.666131 7.722068 173 212 253
-2.859424 -0.569705 7.309251 177 189 215
-2.675870 -0.095311 6.830865 184 196 220
-3.851612 1.874123 8.751662 39 88 165
-10.512132 0.999968 28.611234 119 95 71
-3.007150 -0.788475 10.453274 181 192 220
-3.168447 -0.903077 10.280688 181 190 219
-2.897496 -0.713593 7.471156 194 202 223
-2.716377 -0.269260 7.007679 192 203 233
-2.875752 -0.688199 7.447060 177 189 213
-2.655121 -0.112920 6.875022 176 186 211
-2.842007 0.388378 7.396792 139 121 83
-2.848936 -0.662844 7.433344 214 226 252
-2.752801 -0.451084 7.197465 188 199 227
-43.448436 -22.735020 114.310903 24 85 140
-2.718976 -0.371517 7.118101 186 197 225
-2.475210 -0.251311 7.429911 184 196 222
-2.874985 0.451357 7.527243 142 131 86
-2.934014 0.591739 7.693558 138 123 94
-2.801607 0.353876 7.360406 160 137 93
-43.307830 -22.911407 114.490451 116 179 220
-2.793245 0.335671 7.343938 43 19 7
-2.839063 0.429640 7.468120 15 3 3
-2.822861 0.386610 7.434553 170 161 122
-41.797005 -21.666015 110.776583 62 122 176
-2.823956 0.406180 7.446986 15 0 3
-2.823956 0.406180 7.446986 15 0 3
-2.665203 -0.283574 7.023544 174 185 213
-2.917430 0.569222 7.694679 8 0 0
-2.826617 -0.693817 7.464757 182 191 220
-2.826617 -0.693817 7.464757 182 191 220
-2.700276 0.208802 7.164484 129 112 84
-2.744073 0.300634 7.313413 52 25 16
-4.481799 -0.926929 12.357447 178 187 216
-2.741095 0.313085 7.336971 168 151 95
-2.860692 0.536663 7.664794 144 132 90
-2.860692 0.536663 7.664794 144 132 90
-2.594989 -0.190161 6.954059 199 209 234
-2.676422 -0.432063 7.183211 177 186 215
-2.652054 0.178266 7.123060 127 111 86
-34.020722 -18.959615 92.098314 107 146 177
-2.871434 0.554849 7.731757 10 0 0
-2.883559 0.591044 7.770670 22 4 4
-2.681149 0.254841 7.253980 154 134 83
-2.696641 0.274553 7.298140 39 20 13
-2.604561 -0.294004 7.066821 180 191 219
-2.604561 -0.294004 7.066821 180 191 219
-2.963065 0.769268 8.077926 3 2 0
-2.744808 -0.702737 7.487639 0 9 38
-2.657971 -0.496001 7.285073 193 202 231
-2.538824 -0.188747 6.973856 175 187 213
-2.538824 -0.188747 6.973856 175 187 213
-23.957634 -16.184088 66.232634 217 236 251
-2.858720 0.631196 7.885058 144 126 80
-2.868172 0.652152 7.905741 17 0 4
-3.904028 2.715331 13.006962 46 105 175
-2.553960 0.102432 7.080298 64 47 29
-23.574390 -15.261730 65.812734 199 235 255
-2.700420 -0.710505 7.508661 5 14 43
-2.533887 0.105713 7.090171 128 112 97
-2.619228 -0.546705 7.343165 186 195 224
-2.619228 -0.546705 7.343165 186 195 224
-2.579731 -0.401457 7.247439 182 191 220
-22.616013 -15.500375 63.889581 202 237 255
-2.359150 -0.135643 7.083549 187 194 220
-2.834387 0.679303 8.000289 135 129 97
-2.834387 0.679303 8.000289 135 129 97
-21.127971 -13.606441 59.912691 70 140 140
-2.508262 -0.304830 7.098598 188 199 227
-2.576692 -0.586550 7.382749 191 200 229
-2.529480 -0.425726 7.243192 206 217 245
-2.529480 -0.425726 7.243192 206 217 245
-2.738155 1.662969 7.852631 189 221 255
-4.202446 -0.939477 12.377924 187 196 225
-18.024868 -10.055598 52.034349 148 208 198
-66.880614 1.429802 190.575067 113 96 76
-2.727052 1.557708 7.907412 183 223 255
-2.727052 1.557708 7.907412 183 223 255
-7.864714 0.528907 22.869275 181 186 205
-2.718450 1.747679 7.881340 39 92 158
-2.718450 1.747679 7.881340 39 92 158
-2.567074 1.759852 7.466915 22 69 141
-2.552592 -0.646527 7.470690 179 190 218
-2.408009 0.046852 7.073704 119 102 86
-17.409364 -10.133036 51.387849 69 142 174
-18.976971 -12.091509 56.116081 155 204 219
-2.358370 -0.124402 6.966023 179 187 210
-20.430540 -14.595984 60.662500 118 185 150
-2.666431 1.766337 7.899476 29 89 159
-1.654215 -2.246575 5.597604 14 25 47
-18.018872 -11.481377 53.878824 49 109 133
-2.537747 -0.736952 7.568552 18 32 61
-0.909642 0.578405 2.864750 29 93 167
-2.545659 -0.771389 7.618328 191 205 232
-2.453405 -0.577127 7.349469 191 200 229
-2.485337 -0.655344 7.490321 185 194 223
-2.449689 -0.561154 7.383398 180 189 218
-2.357440 -0.356768 7.187011 182 191 220
-2.357440 -0.356768 7.187011 182 191 220
-72.011078 -97.552925 221.132491 142 148 160
-2.473663 -0.752349 7.598117 177 191 218
-18.031626 -12.099669 55.654867 133 176 218
-312.752654 -432.055166 966.429108 138 127 121
-2.412409 -0.605441 7.452770 180 189 218
-2.412409 -0.605441 7.452770 180 189 218
-2.449713 -0.731374 7.608020 178 189 217
-2.448006 -0.762146 7.622581 180 196 222
-4.450348 0.522341 12.441298 20 28 49
-2.384622 -0.593183 7.443720 192 201 230
-2.384622 -0.593183 7.443720 192 201 230
-2.281180 -0.251782 7.118438 180 192 218
-75.472005 -106.562999 236.031932 38 42 41
-1.725420 -0.182413 5.935598 188 196 219
-2.290197 -0.315910 7.173332 188 197 226
-0.225679 0.082046 0.819548 132 151 157
-2.339255 -0.515404 7.368966 180 189 218
-2.249506 -0.002519 7.105647 127 113 102
-2.377852 -0.663962 7.524876 178 187 216
-2.377852 -0.663962 7.524876 178 187 216
-2.342505 -0.547316 7.402541 195 204 233
-2.344612 -0.577185 7.438644 198 207 236
-2.344612 -0.577185 7.438644 198 207 236
-2.324776 0.176342 7.428675 28 36 57
-2.366381 -0.684459 7.573784 174 183 212
-2.235101 -0.283263 7.149125 177 187 214
-2.235101 -0.283263 7.149125 177 187 214
-16.615916 -10.696604 53.441561 175 206 235
-2.217930 -0.246208 7.127225 184 194 221
-2.217930 -0.246208 7.127225 184 194 221
-2.338997 -0.687927 7.585023 181 190 219
-2.187819 -0.024604 7.106887 69 54 51
-2.297525 -0.603661 7.483406 192 201 230
-2.297525 -0.603661 7.483406 192 201 230
-2.266261 -0.503593 7.378824 181 190 219
-2.163176 -0.156576 7.049026 191 199 220
-2.408769 0.453512 7.849105 173 182 211
-16.738371 -10.880013 54.811830 191 198 242
-16.738371 -10.880013 54.811830 191 198 242
-2.280760 -0.571562 7.444128 179 188 217
-2.280760 -0.571562 7.444128 179 188 217
-2.214543 -0.355018 7.225226 184 194 221
-2.214543 -0.355018 7.225226 184 194 221
-2.226463 -0.426016 7.303717 171 180 209
-2.303087 -0.719967 7.612881 188 199 229
-2.303087 -0.719967 7.612881 188 199 229
-2.233965 -0.528530 7.388072 180 189 218
-2.315000 -0.781854 7.670989 183 196 228
-2.315000 -0.781854 7.670989 183 196 228
-2.193426 -0.403672 7.287771 186 196 223
-2.278597 -0.725422 7.617242 188 199 229
-2.265134 -0.693440 7.577258 189 198 227
-2.265134 -0.693440 7.577258 189 198 227
-3.239199 -0.474073 9.413906 186 196 223
-15.660485 -10.633087 53.191884 212 231 255
-15.660485 -10.633087 53.191884 212 231 255
-2.250024 -0.733951 7.628945 184 195 223
-2.273859 -0.809763 7.718095 172 183 213
-2.273859 -0.809763 7.718095 172 183 213
-2.117809 -0.021011 7.181470 131 111 104
-16.264426 -11.567803 55.488272 96 103 145
-2.101382 -0.030898 7.181763 46 25 20
-2.134198 -0.439384 7.334355 179 189 216
-2.077405 0.617957 7.355143 162 169 197
-2.077405 0.617957 7.355143 162 169 197
-2.096109 -0.374614 7.277978 172 182 209
-2.447379 0.800416 8.517545 1 5 8
-2.178898 -0.709911 7.612583 197 206 235
-2.111689 -0.498928 7.385619 185 195 222
-5.578987 0.671210 18.457101 187 195 214
-2.299777 1.644928 8.083274 77 146 223
-2.113009 -0.570080 7.442243 195 202 230
-2.026975 -0.212985 7.141626 186 193 219
-2.026975 -0.212985 7.141626 186 193 219
-2.193293 -0.825782 7.760248 182 193 223
-2.142333 -0.658275 7.579700 194 201 230
-2.035356 -0.277157 7.199001 184 194 219
-2.091580 -0.503530 7.430461 184 194 221
-2.091580 -0.503530 7.430461 184 194 221
-1.780582 0.178234 6.502048 192 199 215
-1.995699 -0.219340 7.140923 179 190 212
-0.163449 0.098808 0.777550 2 21 54
-2.911672 0.730508 9.843282 176 181 203
-2.370617 0.773672 8.548511 5 5 7
-2.007357 -0.361550 7.283994 173 183 210
-2.007357 -0.361550 7.283994 173 183 210
-2.605456 -0.613538 8.537264 187 194 222
-1.964562 -0.192923 7.147169 183 189 211
-2.078440 -0.668727 7.602289 173 180 208
-2.078440 -0.668727 7.602289 173 180 208
-2.048060 0.119282 7.488944 192 199 218
-2.068174 -0.641508 7.581693 193 200 228
-1.316868 0.316586 4.941731 178 183 203
-2.110311 -0.819027 7.759080 179 190 220
-2.089472 -0.775680 7.707047 179 190 220
-1.995438 -0.461229 7.388885 184 194 221
-48.649682 -1.001527 178.957624 178 176 161
-0.225688 0.123483 2.208307 144 140 131
-1.981769 -0.505615 7.431449 182 189 217
-1.981769 -0.505615 7.431449 182 189 217
-2.062253 -0.789571 7.740514 191 200 231
-1.967211 -0.441076 7.385269 178 190 216
-18.282218 -14.797709 68.765478 70 79 120
-2.068954 -0.824682 7.784102 199 208 239
-1.433595 0.272740 5.019770 175 182 201
-2.006574 -0.612164 7.561778 198 205 233
-2.006574 -0.612164 7.561778 198 205 233
-2.021069 -0.682507 7.625061 196 203 231
-2.218344 0.640210 8.371168 4 3 8
-2.005672 -0.641446 7.583661 190 197 225
-1.916643 -0.318461 7.269945 184 191 217
-1.915219 1.582845 8.132754 32 101 178
-2.006073 -0.704586 7.649976 187 194 222
-1.981943 -0.613484 7.556259 187 194 222
-1.981943 -0.613484 7.556259 187 194 222
-2.294197 0.393255 7.501297 183 189 213
-2.294197 0.393255 7.501297 183 189 213
-2.009998 -0.735939 7.677733 181 188 216
-2.009998 -0.735939 7.677733 181 188 216
-1.968894 -0.584183 7.535329 185 192 220
-15.976792 -13.249593 61.475227 181 184 203
-1.895683 -0.029621 7.328211 194 194 186
-1.953814 -0.621626 7.563130 177 184 212
-1.953814 -0.621626 7.563130 177 184 212
-1.872061 -0.295203 7.249041 191 202 224
-1.872061 -0.295203 7.249041 191 202 224
-2.105439 1.601360 8.159613 76 145 222
-15.059894 -12.487928 58.531874 114 120 132
-1.984060 -0.727024 7.707245 183 190 218
-1.984060 -0.727024 7.707245 183 190 218
-1.892380 -0.390203 7.364797 180 187 215
-1.966727 0.197096 7.665192 56 94 143
-1.875635 -0.364019 7.326006 182 189 215
-13.713493 -10.845741 53.834175 172 186 215
-1.952579 -0.783934 7.757450 178 185 211
-1.952579 -0.783934 7.757450 178 185 211
-1.913298 -0.672746 7.618025 197 204 230
-1.913977 -0.698914 7.642483 191 198 224
-1.829280 -0.057596 7.322748 191 190 188
-10.018844 -6.044155 51.592148 170 177 203
-1.881880 -0.601458 7.575495 187 194 220
-1.836057 -0.398464 7.381564 182 189 217
-1.915039 -0.753531 7.721353 180 187 213
-1.915039 -0.753531 7.721353 180 187 213
-1.826875 -0.027294 7.386225 10 21 49
-2.100900 0.657054 8.508096 161 163 158
-2.034456 0.515966 8.248610 0 4 40
-1.797743 -0.039234 7.322779 45 89 160
-1.882837 -0.729949 7.734054 191 198 224
-1.882837 -0.729949 7.734054 191 198 224
-2.823239 -0.519747 8.290631 183 190 216
-2.044429 0.580812 8.428217 0 5 31
-2.044429 0.580812 8.428217 0 5 31
-1.854094 0.134110 7.652185 0 23 55
-1.812116 -0.519646 7.494894 185 192 218
-1.854681 -0.680625 7.688663 191 198 224
-1.982469 0.516287 8.305794 8 8 42
-1.988760 0.538728 8.348601 30 68 133
-1.988760 0.538728 8.348601 30 68 133
-1.859613 -0.847077 7.827785 0 0 21
-1.756650 -0.431481 7.426036 179 186 212
-1.766353 0.000557 7.462674 190 192 187
-1.766353 0.000557 7.462674 190 192 187
-1.718566 -0.331725 7.317110 191 199 222
-1.718566 -0.331725 7.317110 191 199 222
-1.701949 -0.233474 7.260337 200 206 228
-1.680551 -0.226876 7.232622 3 6 21
-1.680551 -0.226876 7.232622 3 6 21
-2.406840 0.528826 10.359104 0 4 40
-1.824678 -0.899838 7.923850 0 0 12
-1.774754 -0.677012 7.697909 176 183 209
-1.750413 -0.621673 7.612090 199 206 232
-0.948688 0.661035 3.248867 28 93 173
-1.757296 -0.769596 7.773742 177 183 205
-1.757296 -0.769596 7.773742 177 183 205
-1.773731 -0.908092 7.943115 5 7 19
-1.730097 -0.727790 7.742224 175 183 206
-1.651973 -0.409704 7.436130 175 182 208
-1.651973 -0.409704 7.436130 175 182 208
-1.637050 -0.341010 7.353460 195 203 226
-1.842708 0.454330 8.293216 168 169 171
-1.842708 0.454330 8.293216 168 169 171
-1.748944 -0.869381 7.891534 0 0 23
-1.858333 0.537397 8.400557 160 161 163
-1.858333 0.537397 8.400557 160 161 163
-1.780815 0.361106 8.099936 174 170 159
-1.744787 -0.912668 7.950612 84 85 105
-1.668889 -0.589648 7.608526 176 183 209
-1.600891 -0.341987 7.368888 169 177 198
-1.600067 -0.372992 7.367507 165 173 196
-1.145854 -0.229964 4.892222 165 173 196
-1.588712 -0.296636 7.332538 0 3 25
-1.684921 -0.757030 7.808903 185 191 213
-1.684921 -0.757030 7.808903 185 191 213
-1.881998 0.708025 8.776936 44 58 103
-1.649064 -0.642395 7.695045 185 191 217
-1.649064 -0.642395 7.695045 185 191 217
-1.576843 -0.382406 7.392706 177 185 208
-1.837493 0.614217 8.612288 36 65 105
-1.541124 -0.250838 7.297301 0 1 10
0.000194 0.443898 1.426746 134 140 138
-1.522372 -0.253885 7.312488 7 7 17
-2.236959 -0.471778 7.594031 182 188 214
-1.809733 0.696630 8.803843 65 23 25
-1.601617 -0.730468 7.804145 181 187 211
-1.601617 -0.730468 7.804145 181 187 211
-1.564042 -0.631610 7.664005 168 174 198
-1.489824 -0.289955 7.339597 0 1 23
-1.570698 -0.730577 7.782486 171 177 201
-1.484743 -0.379151 7.433320 188 194 216
-1.484743 -0.379151 7.433320 188 194 216
-1.510128 -0.528512 7.568493 75 81 107
-1.549805 -0.845218 7.887553 176 181 201
-1.549805 -0.845218 7.887553 176 181 201
-1.497370 -0.014282 7.623193 84 45 28
-1.562749 -0.912423 7.986455 7 8 26
-1.498729 -0.643030 7.680120 189 195 219
-1.498729 -0.643030 7.680120 189 195 219
-1.535232 -0.816973 7.890670 177 182 202
-1.535232 -0.816973 7.890670 177 182 202
-1.475258 -0.526417 7.584402 180 186 212
-1.661336 0.540232 8.587162 188 156 143
-1.645380 -0.571750 7.913514 170 176 200
-1.691754 0.650059 8.795941 54 19 15
-1.472180 -0.005401 7.683834 137 128 89
-1.644161 0.524159 8.581028 117 66 62
-1.461544 -0.622973 7.695643 178 184 208
-1.631757 0.535303 8.602158 168 149 134
-1.875852 0.631649 11.003680 168 149 134
-1.493296 -0.877844 7.945347 175 180 199
-1.388145 -0.163040 7.400617 88 48 36
-1.376281 -0.275857 7.361787 0 0 7
-1.458131 -0.744062 7.818263 177 182 202
-1.458131 -0.744062 7.818263 177 182 202
-1.386251 -0.144103 7.460994 169 168 140
-2.431923 -2.117275 13.096653 60 68 81
-1.423814 -0.765547 7.864392 173 178 198
-1.519723 0.397081 8.406624 116 87 73
-1.445087 -0.900406 8.001808 183 185 200
-1.583740 0.642287 8.846221 46 11 7
-1.554537 0.576556 8.713703 67 27 25
-1.550435 0.591307 8.771807 165 151 140
-1.550435 0.591307 8.771807 165 151 140
-1.570000 1.518907 8.425037 34 97 176
-1.364303 -0.728546 7.825221 171 176 198
-1.307870 -0.116009 7.553348 141 132 115
-1.558105 0.681879 8.975843 26 9 2
-1.558105 0.681879 8.975843 26 9 2
-1.513439 0.570214 8.786206 172 152 141
-1.472612 0.466760 8.576795 184 164 153
-1.472612 0.466760 8.576795 184 164 153
-1.304126 -0.548642 7.622442 174 180 204
-1.341736 -0.748281 7.846869 191 196 215
-1.509465 0.592381 8.829071 72 22 21
-1.316248 -0.699430 7.783616 198 203 225
-1.496032 0.607478 8.851190 149 140 125
-1.289014 -0.073850 7.691181 85 78 52
-1.491170 0.629749 8.891980 61 21 19
-1.491170 0.629749 8.891980 61 21 19
-1.245000 -0.428167 7.521064 49 55 77
-1.245000 -0.428167 7.521064 49 55 77
-1.285995 -0.670105 7.773670 0 1 23
-1.239195 -0.406941 7.512496 172 178 200
-1.313324 -0.864818 7.984797 185 188 203
-1.300440 0.077813 7.919153 117 112 83
-1.300440 0.077813 7.919153 117 112 83
-1.266728 -0.628601 7.730741 0 3 25
-1.371688 0.343493 8.373844 50 20 12
-1.371688 0.343493 8.373844 50 20 12
-1.440119 0.577158 8.844275 75 34 30
-1.253605 -0.613551 7.734440 188 193 215
-1.218997 -0.480065 7.574839 161 167 189
-1.274081 0.064920 7.934659 51 30 11
-1.231922 -0.612578 7.724594 180 186 208
-1.370891 0.400606 8.572313 50 20 10
-1.370891 0.400606 8.572313 50 20 10
-1.331609 0.338462 8.396856 40 13 4
-1.232623 -0.696614 7.799943 188 195 214
-1.259934 -0.872842 8.009203 188 191 206
-1.177353 -0.380037 7.499669 179 184 203
-1.164314 -0.362580 7.490095 1 4 19
-1.185622 -0.707600 7.729203 126 131 151
-1.146212 -0.360276 7.491751 189 190 208
-1.131026 -0.327756 7.445596 186 182 183
-1.178517 -0.626563 7.769107 190 195 214
-1.151175 -0.526005 7.589552 171 176 198
-1.151175 -0.526005 7.589552 171 176 198
-1.217823 -0.898852 8.029292 23 25 37
-1.204943 -0.854393 7.988375 87 91 103
-1.149778 -0.512172 7.633471 173 178 198
-1.149778 -0.512172 7.633471 173 178 198
-1.147594 -0.626991 7.750664 179 191 207
-1.092454 -0.371042 7.520893 183 186 203
-0.811052 0.074378 5.700422 60 28 31
-1.121672 -0.630929 7.756153 186 191 210
-1.144048 0.007313 7.937579 162 156 160
-1.113813 -0.606850 7.766679 177 182 202
-1.152626 -0.982559 8.144147 182 179 190
-1.064076 -0.377566 7.528058 169 172 189
-1.072245 -0.730310 8.102685 183 186 205
-1.064718 -0.643007 7.792428 192 195 214
-1.068853 -0.725423 7.872856 192 195 212
-1.100030 -0.985257 8.157442 184 181 192
-1.082744 -0.904245 8.074514 190 192 204
-1.058943 -0.793814 7.943143 201 203 218
-1.003006 -0.260874 7.521864 145 119 106
-1.051759 -0.832622 7.993100 174 176 191
-1.051759 -0.832622 7.993100 174 176 191
-0.995772 -0.469808 7.637358 178 181 200
-1.013013 -0.731268 7.872268 181 182 200
-0.948978 -0.357707 7.531347 167 168 162
-0.951819 -0.610281 7.806610 178 180 201
-0.951819 -0.610281 7.806610 178 180 201
-0.902498 -0.447925 7.641285 168 171 190
-0.902498 -0.447925 7.641285 168 171 190
-0.931059 0.209518 8.708808 116 95 76
-1.011491 0.327674 8.606359 163 154 139
-0.890770 -0.425155 7.624541 172 175 194
-0.890770 -0.425155 7.624541 172 175 194
-1.232366 0.432280 4.132515 68 58 46
-0.933557 -0.860129 8.031588 104 106 118
-0.867849 -0.396572 7.604932 119 121 133
-0.867849 -0.396572 7.604932 119 121 133
-0.896154 -0.792409 7.981959 166 168 183
-0.816959 -0.416979 7.634304 165 168 183
-0.798301 -0.361648 7.577635 83 80 73
-0.798301 -0.361648 7.577635 83 80 73
-0.799702 -0.403183 7.610140 122 122 132
-1.529662 -5.999656 14.391814 138 119 77
-0.798983 -0.951244 8.177113 188 187 195
-0.737939 -0.393246 7.623934 168 167 163
-0.806652 0.195736 8.491908 118 108 99
-0.755470 -0.960676 8.202599 188 187 195
-0.702038 -0.246623 7.723828 31 7 3
-1.155155 -6.074652 12.945816 182 163 120
-0.685274 -0.658601 7.881129 176 177 195
-0.704228 0.109588 8.403666 73 50 58
-1.103961 -5.604534 13.077054 137 116 71
-0.994478 1.854351 9.152971 157 147 111
-0.797827 -2.254804 10.430164 243 246 253
-0.816187 1.361166 8.556242 45 97 170
-0.664131 1.406575 8.844614 43 95 168
-0.664131 1.406575 8.844614 43 95 168
-0.590851 -0.661367 7.898638 72 73 91
-0.590851 -0.661367 7.898638 72 73 91
-0.597895 -0.908500 8.157008 159 159 171
-0.563644 -0.420110 7.689051 166 162 153
-0.590653 0.017238 8.314510 91 63 52
-0.738490 -1.988923 10.406043 254 254 255
-0.511620 -0.425419 7.689819 173 166 158
-0.544928 -0.995068 8.278648 199 196 203
-0.504082 -0.566531 7.802961 186 187 205
-0.504082 -0.566531 7.802961 186 187 205
-0.509408 -0.638698 7.898766 166 167 185
-0.504963 -0.615126 7.861660 76 77 95
-0.504963 -0.615126 7.861660 76 77 95
-0.496657 -0.549255 7.813221 171 173 188
-0.496657 -0.549255 7.813221 171 173 188
-0.571731 0.342896 8.986224 66 32 22
-0.478100 -0.347648 7.686816 180 167 161
-0.468781 -0.906958 8.182068 175 174 188
-0.468781 -0.906958 8.182068 175 174 188
-0.468781 -0.906958 8.182068 175 174 188
-0.666775 -5.344202 11.383433 187 165 118
-0.459988 -0.866341 8.142766 157 159 172
-0.459988 -0.866341 8.142766 157 159 172
-0.430658 -0.235341 7.915046 164 152 140
-0.569815 -2.458595 10.719435 146 142 141
-0.407186 -0.586745 7.871412 165 166 184
-0.383032 -0.713134 7.990501 163 162 176
-0.359388 -0.549864 7.841258 174 176 191
